2.31582 3.03923 0.00000
5.88461 5.96333 0.00000
1.42360 1.29004 0.00000
7.65497 2.71121 0.00000
3.12816 1.72021 0.00000
4.74195 6.77139 0.00000
8.30531 6.63231 0.00000
3.52473 7.04649 0.00000
8.47640 0.58772 0.00000
0.46526 0.02469 0.00000
5.13210 9.94713 0.00000
1.25226 5.59829 0.00000
2.80759 0.52989 0.00000
8.18381 1.00345 0.00000
1.91868 0.75543 0.00000
6.60052 1.23171 0.00000
0.95257 3.62396 0.00000
0.60132 6.43089 0.00000
9.18750 2.45696 0.00000
5.50354 0.70096 0.00000
8.54994 6.37493 0.00000
8.32393 0.36510 0.00000
2.32257 2.75251 0.00000
3.84826 4.23624 0.00000
8.89136 3.01239 0.00000
8.25096 1.13112 0.00000
5.62257 9.37638 0.00000
0.83348 7.42913 0.00000
8.95417 8.91186 0.00000
7.72816 0.40783 0.00000
9.69852 5.91398 0.00000
2.73610 8.72726 0.00000
7.30645 3.58964 0.00000
9.05473 3.66611 0.00000
0.89885 6.97255 0.00000
0.08690 7.74896 0.00000
1.55173 3.98216 0.00000
1.45682 5.77327 0.00000
1.56656 6.33292 0.00000
4.97960 4.80987 0.00000
1.23148 4.67523 0.00000
9.04778 4.68048 0.00000
8.52762 1.68919 0.00000
0.41611 2.21743 0.00000
2.60432 3.97930 0.00000
3.08464 8.78532 0.00000
0.96586 4.88588 0.00000
6.23066 0.91662 0.00000
3.94117 2.11430 0.00000
3.98181 5.78495 0.00000
4.33937 1.66782 0.00000
3.87295 6.52396 0.00000
4.96860 6.35573 0.00000
4.14929 8.52526 0.00000
5.12278 1.29577 0.00000
6.57427 0.12595 0.00000
2.52008 5.77534 0.00000
1.09573 2.68846 0.00000
9.36745 2.25062 0.00000
2.62830 9.92653 0.00000
2.86743 0.57520 0.00000
3.55393 5.27507 0.00000
9.65496 8.89314 0.00000
9.45950 8.94603 0.00000
5.90719 1.56046 0.00000
3.23212 4.79232 0.00000
4.84800 5.88032 0.00000
1.35358 9.52417 0.00000
2.72387 5.36777 0.00000
8.35285 5.46214 0.00000
0.37560 3.81188 0.00000
3.52824 9.68076 0.00000
7.03668 9.32699 0.00000
7.44293 5.45312 0.00000
1.19735 2.90990 0.00000
0.12982 8.05867 0.00000
9.32919 1.77944 0.00000
1.53688 3.97965 0.00000
9.15085 8.23848 0.00000
3.21759 6.10350 0.00000
1.18808 7.81367 0.00000
4.42414 0.65518 0.00000
7.25926 5.39812 0.00000
5.85019 4.89689 0.00000
4.11005 3.17940 0.00000
6.65415 1.17124 0.00000
8.92011 4.46405 0.00000
6.62009 9.61376 0.00000
9.67114 5.48792 0.00000
0.66982 9.62193 0.00000
0.21653 8.90000 0.00000
2.11206 6.25698 0.00000
0.68369 4.90014 0.00000
3.90650 3.15215 0.00000
8.11977 7.80383 0.00000
5.34684 9.09479 0.00000
8.88768 2.89149 0.00000
1.54305 4.90222 0.00000
3.29013 2.05769 0.00000
9.92324 1.17010 0.00000
6.43928 6.74983 0.00000
4.76540 5.74956 0.00000
2.58536 6.83364 0.00000
2.75394 1.23071 0.00000
8.69081 5.63284 0.00000
8.81676 3.21873 0.00000
4.82463 3.58989 0.00000
6.64397 7.01769 0.00000
7.28319 0.61296 0.00000
1.43939 5.84078 0.00000
3.14436 2.94035 0.00000
0.06634 9.69032 0.00000
6.10798 0.56874 0.00000
8.80757 9.29561 0.00000
5.16771 8.05830 0.00000
2.12693 4.03505 0.00000
5.13725 7.81656 0.00000
5.18555 2.05110 0.00000
6.79541 8.66683 0.00000
2.69572 8.40343 0.00000
3.19841 8.06837 0.00000
2.19432 3.37980 0.00000
7.43991 9.46779 0.00000
6.99095 7.75496 0.00000
8.11053 3.62913 0.00000
2.18607 7.01284 0.00000
7.73474 6.29332 0.00000
3.61237 2.64820 0.00000
8.59213 1.92161 0.00000
1.68112 2.18874 0.00000
8.50377 9.65270 0.00000
5.89197 2.18185 0.00000
6.27306 2.43117 0.00000
1.05650 3.74595 0.00000
3.07902 9.45674 0.00000
2.71017 9.00321 0.00000
2.49239 6.72224 0.00000
2.62072 5.23414 0.00000
6.39880 7.56897 0.00000
2.87572 3.39337 0.00000
5.51334 6.44684 0.00000
3.40240 9.36282 0.00000
7.82892 0.49862 0.00000
7.92521 3.20866 0.00000
1.31755 5.87049 0.00000
7.03407 0.32578 0.00000
9.85330 6.43415 0.00000
4.19284 8.25103 0.00000
6.62893 6.43039 0.00000
6.94099 4.60146 0.00000
4.13165 2.31811 0.00000
2.59146 3.74988 0.00000
8.76605 0.80165 0.00000
6.30946 9.85979 0.00000
2.26043 8.97522 0.00000
0.03750 5.07127 0.00000
4.40588 7.11275 0.00000
6.66065 2.10103 0.00000
4.17418 3.12089 0.00000
4.56274 6.66568 0.00000
6.49915 3.10354 0.00000
6.80978 7.87932 0.00000
4.10974 8.18559 0.00000
7.50580 4.48464 0.00000
2.93000 5.01379 0.00000
1.11066 0.41260 0.00000
6.90674 2.98282 0.00000
0.17512 3.85327 0.00000
1.32324 1.52324 0.00000
3.79727 3.38829 0.00000
1.45444 0.05373 0.00000
6.94588 5.71010 0.00000
6.42916 6.93852 0.00000
5.77932 9.73363 0.00000
2.86407 7.12045 0.00000
9.34857 2.14798 0.00000
3.86148 3.54222 0.00000
9.39670 2.53474 0.00000
5.37397 4.93745 0.00000
2.20225 2.92759 0.00000
0.32870 8.38685 0.00000
1.00895 1.95393 0.00000
5.49098 6.25913 0.00000
9.68248 2.85744 0.00000
7.38363 6.90640 0.00000
1.29744 1.45563 0.00000
2.32206 1.74909 0.00000
6.85676 3.74944 0.00000
0.07295 6.84126 0.00000
9.66311 8.41360 0.00000
4.79337 5.04388 0.00000
7.69322 3.86194 0.00000
5.03235 5.07302 0.00000
2.98922 2.25137 0.00000
4.09278 9.01681 0.00000
5.56839 9.17417 0.00000
5.69599 0.94784 0.00000
0.86967 9.61577 0.00000
6.54678 3.82638 0.00000
5.70562 4.61792 0.00000
2.07481 9.24905 0.00000
6.63771 8.36152 0.00000
4.60124 2.52475 0.00000
6.95327 0.60031 0.00000
7.33962 6.17319 0.00000
5.12249 3.60117 0.00000
4.64182 4.98087 0.00000
0.34750 6.75259 0.00000
2.39447 9.46947 0.00000
8.82075 6.06969 0.00000
3.44511 2.85768 0.00000
2.98746 3.23926 0.00000
4.28041 1.21734 0.00000
4.21223 1.45821 0.00000
1.12857 9.75325 0.00000
5.14884 1.09258 0.00000
9.29258 7.56911 0.00000
3.23119 4.54893 0.00000
5.60991 8.13509 0.00000
5.29383 5.35502 0.00000
2.62110 3.38096 0.00000
1.49285 7.58500 0.00000
9.46861 1.33801 0.00000
8.57723 7.16794 0.00000
6.02958 5.51368 0.00000
8.96045 2.33444 0.00000
4.98938 0.62232 0.00000
9.24949 1.68107 0.00000
1.17639 0.99406 0.00000
6.38771 1.07335 0.00000
5.11343 1.02429 0.00000
3.38001 5.76807 0.00000
8.69925 4.36574 0.00000
7.36312 8.20788 0.00000
2.43714 4.12421 0.00000
2.27513 3.64554 0.00000
4.47596 6.39733 0.00000
5.25322 2.12737 0.00000
5.13769 8.62792 0.00000
5.18987 7.84469 0.00000
9.04388 2.08358 0.00000
7.62666 8.48292 0.00000
9.67222 5.71960 0.00000
9.40723 4.72000 0.00000
2.14544 1.00357 0.00000
9.56807 9.74960 0.00000
1.53709 0.03915 0.00000
1.29020 0.53535 0.00000
7.32507 1.07559 0.00000
7.68661 8.61512 0.00000
0.63368 3.11709 0.00000
5.20194 8.70241 0.00000
6.12649 8.63756 0.00000
1.41805 7.02141 0.00000
3.67202 0.20837 0.00000
2.85316 7.66703 0.00000
1.65877 3.33590 0.00000
6.37140 7.53473 0.00000
2.22318 3.25981 0.00000
7.45941 0.46229 0.00000
7.11755 4.12658 0.00000
8.68288 6.36234 0.00000
3.48749 5.01357 0.00000
7.74959 6.92290 0.00000
9.90231 0.03057 0.00000
9.76147 8.66981 0.00000
0.68803 3.89161 0.00000
9.20078 3.11486 0.00000
2.39655 3.23704 0.00000
7.02648 1.97861 0.00000
2.29468 5.36269 0.00000
4.03177 2.48533 0.00000
7.50330 0.78280 0.00000
6.41200 5.19852 0.00000
9.62834 1.80123 0.00000
7.88373 6.19521 0.00000
7.79457 5.98995 0.00000
8.52505 7.88847 0.00000
2.16542 5.77537 0.00000
2.09830 2.96122 0.00000
9.19967 2.37804 0.00000
0.53659 6.73456 0.00000
3.52102 3.42386 0.00000
1.46945 4.89637 0.00000
4.69332 0.89323 0.00000
6.12279 0.97293 0.00000
7.91807 4.22574 0.00000
0.28742 3.33908 0.00000
8.67637 8.25060 0.00000
5.41871 8.17029 0.00000
3.07453 6.01096 0.00000
4.91636 6.64495 0.00000
2.43486 8.80007 0.00000
5.57095 9.92113 0.00000
9.75084 4.22189 0.00000
1.03715 5.54169 0.00000
3.03693 0.61974 0.00000
0.47555 7.46466 0.00000
0.66078 8.97359 0.00000
1.55251 1.32812 0.00000
9.76821 9.54402 0.00000
7.12081 5.61043 0.00000
9.84783 8.04670 0.00000
4.10095 2.16590 0.00000
6.70339 2.02110 0.00000
3.58433 2.44772 0.00000
3.78468 1.55830 0.00000
4.40735 9.25991 0.00000
7.83793 4.19585 0.00000
2.82441 0.40932 0.00000
5.37885 1.52693 0.00000
8.48607 9.82206 0.00000
0.77859 2.41967 0.00000
3.76105 1.35463 0.00000
1.85113 1.70050 0.00000
0.26594 8.91921 0.00000
6.34864 6.32674 0.00000
0.86865 0.86290 0.00000
1.82221 1.83702 0.00000
1.07367 4.85505 0.00000
4.68855 3.86593 0.00000
4.64324 1.92849 0.00000
8.75657 2.74191 0.00000
3.18015 4.92459 0.00000
9.43194 4.63668 0.00000
8.49908 1.36862 0.00000
9.83527 6.12101 0.00000
6.22547 1.10674 0.00000
2.90008 6.95281 0.00000
4.46398 3.27778 0.00000
7.99526 4.88613 0.00000
8.52709 8.05374 0.00000
9.00653 0.65578 0.00000
3.69839 2.42224 0.00000
7.64426 8.64736 0.00000
3.12675 6.12335 0.00000
8.31143 5.90424 0.00000
2.81928 0.68755 0.00000
4.47273 2.90192 0.00000
1.26860 9.29764 0.00000
2.00316 5.02876 0.00000
8.90867 8.34156 0.00000
8.03162 2.44908 0.00000
0.62171 6.55199 0.00000
3.28495 2.99811 0.00000
2.00898 7.87218 0.00000
6.43337 7.03037 0.00000
0.25198 9.23598 0.00000
1.28968 1.89742 0.00000
9.87586 0.15668 0.00000
5.70856 9.80473 0.00000
3.90394 7.25004 0.00000
1.48785 1.32425 0.00000
7.26877 8.84368 0.00000
1.00080 6.45488 0.00000
5.87320 5.71095 0.00000
2.08829 4.88932 0.00000
7.73974 9.07136 0.00000
1.67949 7.68546 0.00000
4.65159 9.16753 0.00000
2.60173 8.68256 0.00000
1.92292 4.45415 0.00000
7.07773 0.68323 0.00000
6.90444 4.87437 0.00000
4.58919 3.76431 0.00000
0.67798 2.52083 0.00000
8.91296 7.28912 0.00000
0.90392 8.88952 0.00000
3.26670 8.89584 0.00000
3.87275 0.88186 0.00000
7.98992 4.79001 0.00000
4.05198 4.05550 0.00000
7.31257 1.28577 0.00000
2.11906 7.85763 0.00000
2.27768 4.20459 0.00000
8.90954 4.91922 0.00000
4.00860 0.11481 0.00000
3.34219 1.04376 0.00000
7.00168 5.97698 0.00000
2.17461 3.10050 0.00000
8.67469 2.93692 0.00000
0.95596 9.03548 0.00000
1.61282 4.84996 0.00000
7.83540 3.87461 0.00000
9.59726 1.61164 0.00000
7.74284 4.37809 0.00000
5.03984 5.50442 0.00000
0.23243 2.50652 0.00000
9.37116 8.56753 0.00000
0.76008 9.20218 0.00000
4.76582 6.48959 0.00000
7.30989 1.87565 0.00000
1.02279 3.49542 0.00000
1.59021 9.70194 0.00000
5.89239 1.23948 0.00000
1.72192 1.95871 0.00000
2.84294 7.27880 0.00000
9.99736 4.84339 0.00000
9.87489 1.67012 0.00000
0.22064 6.23612 0.00000
5.33906 4.61555 0.00000
5.93669 6.35779 0.00000
0.81426 7.04432 0.00000
3.69146 2.10765 0.00000
1.34392 3.52799 0.00000
2.23335 2.81736 0.00000
6.20095 4.64659 0.00000
7.65576 0.13765 0.00000
5.61162 1.37064 0.00000
0.34679 5.65407 0.00000
3.59128 7.86787 0.00000
3.41552 9.88278 0.00000
2.64535 2.33135 0.00000
7.29671 1.71578 0.00000
2.56569 1.46085 0.00000
8.80905 8.99698 0.00000
2.67114 3.94121 0.00000
9.03895 5.29439 0.00000
8.00932 8.20403 0.00000
5.55791 0.16458 0.00000
5.52345 9.56122 0.00000
0.74084 6.82082 0.00000
8.92230 3.66046 0.00000
2.40185 4.69017 0.00000
7.21455 3.01493 0.00000
3.47954 2.40715 0.00000
2.07325 9.02594 0.00000
5.00794 9.82051 0.00000
5.40800 5.19980 0.00000
6.73851 1.01174 0.00000
4.19504 8.49643 0.00000
1.96151 5.29109 0.00000
2.84390 5.60957 0.00000
6.88650 6.63625 0.00000
1.20507 5.53773 0.00000
4.43502 4.42710 0.00000
3.89599 1.23192 0.00000
6.39907 7.55947 0.00000
5.81868 1.86888 0.00000
3.23987 6.01917 0.00000
5.11162 9.36296 0.00000
1.84130 2.40299 0.00000
7.21094 9.19536 0.00000
5.14580 9.83916 0.00000
4.08817 4.18220 0.00000
0.53174 9.86130 0.00000
4.07118 5.41551 0.00000
2.92730 6.57184 0.00000
5.56802 1.29067 0.00000
7.20808 8.63509 0.00000
0.18710 6.59551 0.00000
0.23565 8.12316 0.00000
1.57626 0.52508 0.00000
4.29421 5.47259 0.00000
4.21630 5.51116 0.00000
6.67248 4.87789 0.00000
7.44899 9.05430 0.00000
2.42971 5.26884 0.00000
7.33736 4.72706 0.00000
0.14929 8.72882 0.00000
6.16556 3.02781 0.00000
7.95517 8.46115 0.00000
6.75489 2.05518 0.00000
0.29572 2.14933 0.00000
2.14397 3.21649 0.00000
2.77089 6.56492 0.00000
3.13610 6.20638 0.00000
6.49512 9.59874 0.00000
3.35271 8.68466 0.00000
0.89958 5.30116 0.00000
7.12332 2.06385 0.00000
2.71158 2.06873 0.00000
8.50510 6.28995 0.00000
7.61737 5.15301 0.00000
9.32333 6.28799 0.00000
4.70236 4.32159 0.00000
5.81348 1.31621 0.00000
8.85098 9.40238 0.00000
1.62060 7.49363 0.00000
4.35944 7.25563 0.00000
5.17748 2.99755 0.00000
9.71829 5.54744 0.00000
6.35828 3.00729 0.00000
3.14926 8.40628 0.00000
9.97197 5.92762 0.00000
3.18299 6.94185 0.00000
6.03644 7.40820 0.00000
5.15014 2.73335 0.00000
4.67407 5.22693 0.00000
7.68136 0.79747 0.00000
8.46602 4.28504 0.00000
2.25204 7.92643 0.00000
3.61070 4.35465 0.00000
9.98137 4.67898 0.00000
0.69290 4.40481 0.00000
6.75292 7.04299 0.00000
3.61967 4.14244 0.00000
8.93115 5.65349 0.00000
5.92667 4.78225 0.00000
9.26816 6.14032 0.00000
4.68873 7.77659 0.00000
6.97171 3.05005 0.00000
5.72767 8.65472 0.00000
3.65733 1.16859 0.00000
9.51567 9.13856 0.00000
8.76542 9.87451 0.00000
2.65195 2.68609 0.00000
3.67080 7.28618 0.00000
6.68675 7.87103 0.00000
1.57439 6.29735 0.00000
2.59214 0.65173 0.00000
4.26876 7.20847 0.00000
6.41878 7.84770 0.00000
7.92560 9.89594 0.00000
3.79559 7.21926 0.00000
8.57568 4.67663 0.00000
3.56961 3.79592 0.00000
0.75373 0.23937 0.00000
6.93209 2.82212 0.00000
9.14212 3.37758 0.00000
7.99447 5.95223 0.00000
4.60651 0.01702 0.00000
0.74338 4.88973 0.00000
9.80699 5.99282 0.00000
9.15022 3.54154 0.00000
4.33024 3.22789 0.00000
2.32031 3.89912 0.00000
3.00297 7.78305 0.00000
7.62872 6.60765 0.00000
8.77236 4.87066 0.00000
1.80126 2.43734 0.00000
3.32228 2.48184 0.00000
2.39570 0.05545 0.00000
6.95707 7.18924 0.00000
3.11727 5.08354 0.00000
7.35722 7.28245 0.00000
0.67579 1.95407 0.00000
2.68819 1.30444 0.00000
1.84446 0.73903 0.00000
2.52400 1.57987 0.00000
7.57044 9.02780 0.00000
1.06787 3.23872 0.00000
6.77888 7.25366 0.00000
3.42515 4.86617 0.00000
7.13316 4.10661 0.00000
8.38899 2.83747 0.00000
4.32405 5.49686 0.00000
0.20622 8.08388 0.00000
4.76472 4.78538 0.00000
0.82784 8.29739 0.00000
4.36475 7.64003 0.00000
6.55249 7.78984 0.00000
2.75890 4.83211 0.00000
6.74254 8.96830 0.00000
3.64164 0.48388 0.00000
0.55803 4.89547 0.00000
2.95667 4.87839 0.00000
1.02959 7.03933 0.00000
8.79646 9.11898 0.00000
7.97570 6.60029 0.00000
3.36999 1.50181 0.00000
6.20664 5.43378 0.00000
6.01250 6.95433 0.00000
2.92285 0.74083 0.00000
7.60082 6.48151 0.00000
3.28640 9.60536 0.00000
2.73390 8.70608 0.00000
7.92827 0.86230 0.00000
2.11082 6.03426 0.00000
4.33405 1.67391 0.00000
7.62939 8.86191 0.00000
1.01116 5.35348 0.00000
3.42127 2.91151 0.00000
6.37492 9.07561 0.00000
2.30153 2.26108 0.00000
4.06805 2.56059 0.00000
2.76970 3.62323 0.00000
4.41170 0.52770 0.00000
6.22786 3.25974 0.00000
3.10547 3.56764 0.00000
1.97316 6.28480 0.00000
5.10393 0.50262 0.00000
3.46823 8.59145 0.00000
1.26247 3.90321 0.00000
4.43406 2.64777 0.00000
2.98314 9.93761 0.00000
6.59007 2.96922 0.00000
5.51879 8.69403 0.00000
4.59210 6.78022 0.00000
0.90637 8.32231 0.00000
4.57755 0.95855 0.00000
2.12192 3.90358 0.00000
5.73064 5.60476 0.00000
4.15336 3.61256 0.00000
7.19876 7.39407 0.00000
9.11885 5.84575 0.00000
4.48584 3.24836 0.00000
7.14752 2.40120 0.00000
5.02886 7.55353 0.00000
3.58851 5.09407 0.00000
3.05521 0.23145 0.00000
4.21991 6.52350 0.00000
6.17342 9.98918 0.00000
6.80341 2.78158 0.00000
1.13563 4.13339 0.00000
1.50486 7.17749 0.00000
8.27114 3.48922 0.00000
8.25296 2.07378 0.00000
1.88905 6.62887 0.00000
6.53128 8.61875 0.00000
5.98903 0.13855 0.00000
1.19600 1.00298 0.00000
2.22340 0.14458 0.00000
0.94189 3.38361 0.00000
8.36686 2.69696 0.00000
3.68318 6.51897 0.00000
0.02715 5.68772 0.00000
6.95999 4.72686 0.00000
1.14278 2.57665 0.00000
3.93075 2.38683 0.00000
6.86412 8.40496 0.00000
7.83887 6.57709 0.00000
3.98298 5.86987 0.00000
7.33646 0.14311 0.00000
4.26339 0.23146 0.00000
9.55112 2.50528 0.00000
2.94289 8.21255 0.00000
4.44672 8.93450 0.00000
1.25106 7.71848 0.00000
0.51460 3.25260 0.00000
9.17508 4.24715 0.00000
5.34097 3.40071 0.00000
7.68854 3.31732 0.00000
0.00105 7.87874 0.00000
6.00372 1.18072 0.00000
2.57600 6.37153 0.00000
7.27584 0.49445 0.00000
8.98520 1.66518 0.00000
4.37022 6.14560 0.00000
6.10086 2.44707 0.00000
5.67238 2.87595 0.00000
8.28025 1.55685 0.00000
6.73208 2.93462 0.00000
6.29468 7.19445 0.00000
5.97016 7.27973 0.00000
3.24295 9.47286 0.00000
5.40992 1.34802 0.00000
8.74293 3.90214 0.00000
1.55116 3.98101 0.00000
2.63893 7.22855 0.00000
9.70534 8.37269 0.00000
6.99490 9.86209 0.00000
5.12914 0.06970 0.00000
7.21975 7.36035 0.00000
1.12533 5.66363 0.00000
8.78729 2.44363 0.00000
2.95349 0.31075 0.00000
2.34960 8.74862 0.00000
6.25976 4.06790 0.00000
2.33366 2.40847 0.00000
9.18192 3.31323 0.00000
8.56125 7.72192 0.00000
9.18540 6.89044 0.00000
4.07376 4.56631 0.00000
3.79058 0.33396 0.00000
1.27748 9.56312 0.00000
6.22748 6.90283 0.00000
2.18098 8.91046 0.00000
6.39932 6.52368 0.00000
1.93087 4.26164 0.00000
7.81221 1.75870 0.00000
9.70148 7.06345 0.00000
2.28153 6.10249 0.00000
8.19139 0.69980 0.00000
9.18676 1.67020 0.00000
8.19340 7.61047 0.00000
5.50539 8.24047 0.00000
4.78833 5.42029 0.00000
4.93184 6.72194 0.00000
9.16816 1.86298 0.00000
0.56876 9.78872 0.00000
9.34333 8.67364 0.00000
9.78354 2.56673 0.00000
7.54955 8.28711 0.00000
3.38490 2.52493 0.00000
6.51711 0.71989 0.00000
5.23557 9.07762 0.00000
8.81501 2.81731 0.00000
5.55674 3.89022 0.00000
0.09328 4.04137 0.00000
5.14737 6.86651 0.00000
5.22573 7.46708 0.00000
4.64097 3.43873 0.00000
0.49157 1.54967 0.00000
6.06380 5.21536 0.00000
9.14510 3.65421 0.00000
3.91083 1.04548 0.00000
0.66874 6.94169 0.00000
7.44024 8.29945 0.00000
2.27195 1.49701 0.00000
8.90060 0.49819 0.00000
9.41637 5.62913 0.00000
0.34206 2.72927 0.00000
5.37738 8.53107 0.00000
1.76238 3.90951 0.00000
2.59074 4.75403 0.00000
7.80961 0.48916 0.00000
1.73422 5.00034 0.00000
7.50511 4.23027 0.00000
3.51221 8.50777 0.00000
2.67749 5.58061 0.00000
3.69459 4.68565 0.00000
4.02179 2.97683 0.00000
0.54716 5.29478 0.00000
5.89051 9.68423 0.00000
9.33549 3.44798 0.00000
2.64993 8.30755 0.00000
8.93116 5.11301 0.00000
4.14668 0.47617 0.00000
0.75242 2.83171 0.00000
7.34810 5.81929 0.00000
3.91401 5.64216 0.00000
3.95943 7.14473 0.00000
4.46888 7.50640 0.00000
4.76279 0.03862 0.00000
9.78055 0.27048 0.00000
3.04804 8.20825 0.00000
4.56963 9.45637 0.00000
6.78085 4.27137 0.00000
3.31997 1.01110 0.00000
3.98609 6.68357 0.00000
9.89605 3.20320 0.00000
8.14760 1.90798 0.00000
0.53965 8.75127 0.00000
7.36235 5.21705 0.00000
6.04578 6.87329 0.00000
2.85908 8.67057 0.00000
0.69764 8.19030 0.00000
9.17400 8.42926 0.00000
5.21806 5.09618 0.00000
3.99723 3.59100 0.00000
7.90209 5.69974 0.00000
3.29915 7.37875 0.00000
9.84961 8.75034 0.00000
4.81195 1.75623 0.00000
6.29012 5.96705 0.00000
0.15268 7.52762 0.00000
3.31535 5.60253 0.00000
4.70326 4.35669 0.00000
7.98827 8.77096 0.00000
2.78083 8.44338 0.00000
8.65554 9.07547 0.00000
0.58765 5.23298 0.00000
7.43219 7.21609 0.00000
0.82450 3.33650 0.00000
4.01335 9.72079 0.00000
0.55196 1.41118 0.00000
5.64474 3.93788 0.00000
5.65655 2.24005 0.00000
5.74987 7.96626 0.00000
0.70770 4.04190 0.00000
9.39089 0.26933 0.00000
8.46010 5.35248 0.00000
8.17610 2.20346 0.00000
1.20161 3.63336 0.00000
8.09546 1.56520 0.00000
1.11892 1.33038 0.00000
5.91587 0.57758 0.00000
9.92819 1.31445 0.00000
9.25643 0.74066 0.00000
1.11036 4.84830 0.00000
3.24784 8.61167 0.00000
4.85945 2.61840 0.00000
9.92298 6.78865 0.00000
7.92923 5.37996 0.00000
6.39075 6.01199 0.00000
9.42571 1.30667 0.00000
9.16063 4.40029 0.00000
0.34376 4.06664 0.00000
8.00904 2.16308 0.00000
0.66293 0.30869 0.00000
0.51315 8.60951 0.00000
4.88634 2.48722 0.00000
6.58876 5.31272 0.00000
4.19524 1.18200 0.00000
1.87469 0.63551 0.00000
5.29621 5.71103 0.00000
8.09467 0.97848 0.00000
0.77993 7.78346 0.00000
6.97015 9.92183 0.00000
5.36948 4.79488 0.00000
5.81717 2.11406 0.00000
3.29851 0.15648 0.00000
2.79312 7.77115 0.00000
2.24127 5.35659 0.00000
6.49210 9.29857 0.00000
0.62271 0.80015 0.00000
1.81082 0.04443 0.00000
4.05516 3.26794 0.00000
7.56977 5.60252 0.00000
4.73451 2.20560 0.00000
6.96591 9.63616 0.00000
9.33377 4.16440 0.00000
0.70915 8.96268 0.00000
5.25738 0.79813 0.00000
9.17599 0.01487 0.00000
1.40710 7.22540 0.00000
1.62289 2.46679 0.00000
6.12887 4.89458 0.00000
5.06076 6.18242 0.00000
8.58705 4.48972 0.00000
2.17912 9.98778 0.00000
1.82141 2.88213 0.00000
3.31961 1.85229 0.00000
1.59276 2.13149 0.00000
7.66739 5.10786 0.00000
1.51713 1.04104 0.00000
1.90726 8.54366 0.00000
2.97479 2.85857 0.00000
4.07844 4.49331 0.00000
9.28060 5.60101 0.00000
9.67326 7.78903 0.00000
0.39409 8.36272 0.00000
7.42958 5.51890 0.00000
2.96764 1.02502 0.00000
7.50161 3.00308 0.00000
1.52710 2.52679 0.00000
6.31782 2.35305 0.00000
1.58437 6.57597 0.00000
4.09045 2.80573 0.00000
7.22712 1.69245 0.00000
9.88483 8.44257 0.00000
3.32490 7.65438 0.00000
5.83934 4.12406 0.00000
8.41532 5.54236 0.00000
9.48798 8.93678 0.00000
6.51420 0.63523 0.00000
2.73092 5.33404 0.00000
5.76229 1.70476 0.00000
4.31405 9.36750 0.00000
0.54001 5.88475 0.00000
2.86783 6.23984 0.00000
1.52292 6.01331 0.00000
9.60224 8.80274 0.00000
3.26097 5.89124 0.00000
4.09130 0.43903 0.00000
6.45082 0.39683 0.00000
1.25520 6.18066 0.00000
8.89790 0.93758 0.00000
3.21999 6.79032 0.00000
1.15950 0.98828 0.00000
6.76018 7.17471 0.00000
2.77683 3.44545 0.00000
3.19871 4.19588 0.00000
0.75986 1.00142 0.00000
8.75054 9.49388 0.00000
2.73965 4.14385 0.00000
2.11055 9.03262 0.00000
8.55474 9.35024 0.00000
7.69245 6.42871 0.00000
9.62982 4.20552 0.00000
9.03045 6.93397 0.00000
3.74574 6.87128 0.00000
6.39204 7.08552 0.00000
5.33675 2.32567 0.00000
7.79960 7.02701 0.00000
4.84336 4.58683 0.00000
9.21670 6.93436 0.00000
7.26977 4.04367 0.00000
0.14026 8.92885 0.00000
8.38755 5.65389 0.00000
5.47889 5.50072 0.00000
1.72169 8.02731 0.00000
4.66324 2.47936 0.00000
2.64680 6.99363 0.00000
4.46287 8.85953 0.00000
3.25177 4.59205 0.00000
2.65731 3.15804 0.00000
8.27394 1.19896 0.00000
4.94699 8.07441 0.00000
9.10750 9.00180 0.00000
5.99586 5.63476 0.00000
5.00162 5.47575 0.00000
4.38337 2.84644 0.00000
5.77632 3.23060 0.00000
6.60303 7.20446 0.00000
29.47829 0.00000 1.28313
27.52917 0.00000 0.76818
21.85373 0.00000 2.62822
24.74344 0.00000 3.80256
26.66459 0.00000 3.99495
22.48717 0.00000 1.78536
21.04319 0.00000 1.66612
26.05087 0.00000 4.10609
26.19102 0.00000 0.37796
26.78669 0.00000 4.95230
29.44351 0.00000 4.73909
28.43441 0.00000 0.50723
23.66415 0.00000 0.59037
25.22697 0.00000 4.85227
24.50368 0.00000 3.23753
28.75899 0.00000 2.92314
27.63048 0.00000 4.61716
28.14187 0.00000 1.15088
23.57760 0.00000 1.60980
25.82611 0.00000 1.08965
28.26461 0.00000 4.15414
25.96104 0.00000 0.52360
23.10722 0.00000 4.27415
20.58841 0.00000 0.72228
22.60976 0.00000 0.33688
21.40156 0.00000 2.29018
20.19054 0.00000 2.10733
28.91446 0.00000 3.10236
21.04229 0.00000 3.44896
23.14982 0.00000 0.59091
28.53290 0.00000 4.40503
28.89747 0.00000 4.99964
26.47759 0.00000 2.05323
23.63341 0.00000 1.58537
21.32621 0.00000 3.36606
21.71022 0.00000 0.70910
20.28997 0.00000 4.54382
20.00692 0.00000 1.51322
25.11185 0.00000 4.91787
27.07309 0.00000 4.54510
20.51201 0.00000 1.54533
29.17960 0.00000 1.76627
29.34918 0.00000 3.08054
27.13448 0.00000 2.67412
22.24410 0.00000 0.87989
23.59808 0.00000 1.08567
25.16118 0.00000 2.65891
21.80580 0.00000 1.19894
26.13385 0.00000 4.18424
21.65409 0.00000 2.04788
26.96810 0.00000 4.03510
26.46355 0.00000 0.81405
22.31710 0.00000 3.78936
29.37969 0.00000 3.52101
21.51985 0.00000 0.72263
23.40644 0.00000 2.38713
23.66611 0.00000 0.86412
21.62148 0.00000 0.15222
27.56297 0.00000 2.27493
27.69670 0.00000 1.03218
20.79090 0.00000 2.31797
23.89805 0.00000 4.77910
25.10841 0.00000 2.30139
27.32354 0.00000 2.42638
29.39605 0.00000 4.42028
29.18828 0.00000 3.98611
20.37584 0.00000 3.53805
21.76481 0.00000 2.09695
23.43909 0.00000 4.93580
25.92323 0.00000 1.92702
27.25967 0.00000 3.83687
29.14439 0.00000 3.51230
28.34085 0.00000 2.52561
28.56573 0.00000 2.96661
24.67324 0.00000 3.55922
29.87551 0.00000 4.09705
25.46068 0.00000 2.44117
21.74592 0.00000 0.12612
21.83850 0.00000 0.76525
29.24376 0.00000 1.09037
20.85510 0.00000 4.77326
23.31480 0.00000 1.00191
27.41586 0.00000 1.27090
29.09424 0.00000 4.03815
23.09698 0.00000 4.56631
27.57619 0.00000 0.74833
26.09528 0.00000 2.45655
20.00139 0.00000 3.19522
29.51764 0.00000 4.67764
24.35381 0.00000 3.29943
22.15174 0.00000 0.26944
26.03977 0.00000 3.55965
23.60288 0.00000 3.41479
24.95597 0.00000 3.23428
23.87494 0.00000 0.55678
26.34463 0.00000 0.66665
20.47372 0.00000 4.58561
28.18862 0.00000 1.05861
28.68679 0.00000 0.24802
21.05463 0.00000 0.03724
29.12015 0.00000 2.18933
20.49728 0.00000 3.48099
21.84046 0.00000 0.26680
21.82105 0.00000 1.93568
24.07109 0.00000 1.20836
24.78512 0.00000 1.55474
21.02938 0.00000 2.27191
20.96923 0.00000 0.35785
28.21357 0.00000 3.01728
27.40909 0.00000 4.71951
23.56140 0.00000 2.57281
26.24720 0.00000 3.55603
22.15121 0.00000 4.42115
23.34697 0.00000 2.48634
29.15627 0.00000 2.40867
22.96220 0.00000 4.63555
20.63775 0.00000 4.81807
27.50455 0.00000 0.82423
26.81245 0.00000 4.19955
25.51355 0.00000 2.36775
27.49796 0.00000 0.74526
21.19795 0.00000 2.98910
23.68162 0.00000 1.94792
27.57670 0.00000 4.68817
25.09263 0.00000 2.83792
29.79595 0.00000 4.97506
22.86704 0.00000 3.93968
20.41396 0.00000 1.40943
28.60828 0.00000 0.13459
20.42393 0.00000 4.48361
24.90286 0.00000 2.37375
20.86032 0.00000 3.44643
28.25244 0.00000 4.82778
21.40012 0.00000 3.09163
20.54011 0.00000 2.31954
23.66028 0.00000 4.87587
22.21838 0.00000 4.64313
20.10338 0.00000 4.45758
25.10709 0.00000 2.01111
21.64674 0.00000 1.36730
24.97984 0.00000 4.35403
24.87171 0.00000 3.68697
28.19958 0.00000 3.92227
25.29264 0.00000 1.14512
23.61373 0.00000 4.63881
26.73089 0.00000 2.28439
22.28490 0.00000 1.12235
26.77540 0.00000 4.66345
23.71062 0.00000 1.78711
25.37962 0.00000 1.57675
27.56355 0.00000 0.09286
26.57463 0.00000 1.50363
22.52162 0.00000 1.95672
23.82435 0.00000 3.20444
22.47145 0.00000 1.33904
20.10587 0.00000 2.76491
23.95552 0.00000 4.95575
29.43942 0.00000 2.09034
21.94789 0.00000 3.10815
20.64735 0.00000 0.82608
25.43645 0.00000 1.78166
24.40832 0.00000 4.64662
26.82689 0.00000 0.20427
21.39683 0.00000 2.72279
24.93129 0.00000 4.91080
28.39069 0.00000 3.27633
23.16655 0.00000 2.49223
29.05990 0.00000 3.30954
20.02556 0.00000 2.17633
23.49869 0.00000 0.30430
24.91567 0.00000 2.01869
29.58100 0.00000 2.36520
24.03013 0.00000 4.80578
20.65755 0.00000 1.01590
21.41741 0.00000 2.41420
29.84833 0.00000 2.42142
23.36646 0.00000 2.21616
29.80075 0.00000 4.59005
23.47950 0.00000 1.56514
29.64582 0.00000 2.75398
26.94907 0.00000 1.67848
27.75320 0.00000 1.02538
22.31592 0.00000 1.93142
20.85544 0.00000 3.13548
28.71366 0.00000 3.17247
29.79457 0.00000 3.80905
27.97346 0.00000 1.55332
22.02232 0.00000 2.08948
26.27548 0.00000 0.83128
21.76918 0.00000 2.86680
23.90726 0.00000 4.20021
25.04846 0.00000 3.03762
24.39834 0.00000 1.00146
28.37324 0.00000 1.07226
21.15440 0.00000 3.11452
20.02558 0.00000 3.74057
20.47793 0.00000 0.19573
22.51468 0.00000 1.89078
20.53390 0.00000 1.88180
24.11832 0.00000 0.89790
26.61898 0.00000 2.03418
22.92686 0.00000 2.38127
26.57823 0.00000 3.08136
23.60901 0.00000 3.84974
27.34474 0.00000 4.67025
21.51695 0.00000 3.47630
21.08244 0.00000 3.07681
26.34069 0.00000 3.72093
29.96097 0.00000 4.30506
20.06804 0.00000 0.34773
20.89841 0.00000 1.85112
28.98657 0.00000 0.87464
22.34112 0.00000 4.36599
21.19763 0.00000 2.22995
20.22438 0.00000 3.04643
29.63332 0.00000 1.86400
24.74181 0.00000 4.63625
26.34417 0.00000 0.16405
25.41627 0.00000 4.68743
25.57075 0.00000 4.89591
26.44138 0.00000 1.13363
22.38328 0.00000 3.49730
22.11106 0.00000 4.38247
22.05642 0.00000 1.31538
20.09353 0.00000 1.66650
25.14019 0.00000 2.18440
20.61766 0.00000 1.54253
25.60703 0.00000 4.48847
25.90276 0.00000 2.43113
22.02886 0.00000 2.02124
22.39103 0.00000 4.77998
25.32841 0.00000 2.73911
20.16823 0.00000 3.84390
29.75262 0.00000 4.99502
22.63590 0.00000 0.10540
27.55829 0.00000 2.69096
24.56672 0.00000 2.78033
25.49093 0.00000 2.81132
25.29471 0.00000 0.28037
24.59318 0.00000 3.36041
27.44122 0.00000 0.23217
25.50841 0.00000 4.92626
20.78784 0.00000 0.26636
27.16721 0.00000 4.81112
28.16878 0.00000 2.89515
23.64592 0.00000 0.37947
21.43435 0.00000 1.91703
25.07690 0.00000 4.15284
23.29897 0.00000 2.72504
23.78412 0.00000 1.05675
23.65469 0.00000 1.36886
28.25026 0.00000 0.96586
26.13987 0.00000 0.32874
25.49873 0.00000 0.88974
29.62844 0.00000 0.34598
22.16693 0.00000 0.39798
22.19166 0.00000 0.43205
20.84994 0.00000 1.62749
24.13894 0.00000 2.85271
28.40451 0.00000 3.71108
27.46233 0.00000 1.55482
27.63506 0.00000 1.13364
20.89601 0.00000 2.79864
20.62948 0.00000 3.52818
20.98469 0.00000 0.60021
21.90624 0.00000 1.15812
21.97305 0.00000 1.28492
22.42749 0.00000 2.54591
26.26402 0.00000 2.20237
25.36401 0.00000 3.13075
20.57634 0.00000 0.96401
20.42773 0.00000 1.98543
28.62045 0.00000 3.68021
23.09746 0.00000 3.54813
27.16631 0.00000 0.96183
26.62336 0.00000 3.62358
25.09556 0.00000 0.28068
22.05858 0.00000 0.81700
26.96550 0.00000 4.36623
26.18192 0.00000 0.41435
28.06104 0.00000 0.22966
21.93319 0.00000 2.87339
28.02347 0.00000 3.00285
28.79086 0.00000 0.61195
27.40400 0.00000 0.66229
22.26421 0.00000 3.13828
28.07536 0.00000 3.87720
28.47298 0.00000 4.88757
27.52604 0.00000 0.62433
21.93660 0.00000 0.02484
26.35058 0.00000 2.07058
29.82317 0.00000 2.54476
28.16280 0.00000 3.45198
25.23701 0.00000 4.98501
28.74002 0.00000 3.01875
20.99066 0.00000 1.95295
24.77152 0.00000 0.29397
26.96638 0.00000 1.77104
24.80822 0.00000 4.38096
25.40665 0.00000 0.66979
21.73868 0.00000 3.87790
28.24530 0.00000 0.99020
27.13834 0.00000 3.06852
23.95334 0.00000 4.97432
27.56469 0.00000 4.99483
26.04755 0.00000 3.86194
27.99570 0.00000 3.37054
20.64758 0.00000 2.28121
26.34723 0.00000 1.18796
21.81542 0.00000 2.00713
27.90217 0.00000 4.45142
25.76226 0.00000 4.38239
28.31540 0.00000 2.80679
27.23805 0.00000 0.64845
27.05293 0.00000 3.43872
26.72304 0.00000 1.55367
22.21475 0.00000 1.89955
22.19103 0.00000 4.80541
27.43154 0.00000 1.67588
20.37924 0.00000 4.61928
22.23155 0.00000 0.80668
26.40593 0.00000 1.80923
29.11368 0.00000 4.75653
21.06675 0.00000 1.04769
27.99635 0.00000 1.27282
25.35044 0.00000 4.23636
26.15184 0.00000 1.05841
22.77456 0.00000 4.83621
29.15104 0.00000 4.13738
20.78243 0.00000 4.18311
24.57609 0.00000 4.63824
24.61257 0.00000 2.74702
22.84512 0.00000 0.30051
22.37632 0.00000 4.21947
27.13107 0.00000 2.67658
23.99108 0.00000 1.33235
22.13753 0.00000 3.53040
22.71757 0.00000 2.63624
23.74897 0.00000 1.35433
25.87098 0.00000 3.42366
26.50929 0.00000 0.83232
27.30246 0.00000 0.09440
22.39485 0.00000 3.06409
24.27897 0.00000 0.38896
27.42072 0.00000 4.88877
24.38154 0.00000 0.48581
20.16389 0.00000 2.98576
27.51153 0.00000 0.48692
22.98577 0.00000 0.95087
29.98019 0.00000 0.59400
21.55112 0.00000 3.50696
29.55505 0.00000 3.05034
28.92745 0.00000 2.54087
22.33504 0.00000 1.05733
20.17843 0.00000 3.18704
20.98509 0.00000 0.03371
28.85518 0.00000 2.59503
25.52898 0.00000 2.94750
22.60729 0.00000 0.79604
26.75118 0.00000 1.84666
27.28665 0.00000 0.18508
20.43232 0.00000 1.99796
20.10405 0.00000 2.15021
22.31985 0.00000 2.66593
29.01248 0.00000 4.57726
21.27203 0.00000 1.11292
23.27038 0.00000 4.49079
22.11204 0.00000 4.06250
24.56639 0.00000 1.08577
27.96348 0.00000 1.26186
24.81479 0.00000 1.17641
26.94106 0.00000 3.82248
26.28655 0.00000 0.56270
29.57565 0.00000 4.38939
21.65669 0.00000 2.43643
25.70876 0.00000 3.90581
23.48724 0.00000 3.18118
24.61052 0.00000 4.94491
20.77687 0.00000 3.41163
29.90564 0.00000 1.43241
29.88984 0.00000 1.44723
27.71073 0.00000 3.37314
26.22943 0.00000 1.65517
29.35666 0.00000 1.20243
28.06876 0.00000 4.80988
28.04492 0.00000 2.19402
28.54287 0.00000 1.93733
29.53892 0.00000 4.88652
24.99493 0.00000 2.94686
23.31493 0.00000 3.33737
28.12222 0.00000 2.86068
27.02389 0.00000 1.39209
23.54995 0.00000 1.41230
26.70556 0.00000 2.70928
26.82015 0.00000 4.28670
20.99331 0.00000 2.70375
26.27735 0.00000 1.54562
23.32126 0.00000 4.72325
29.25134 0.00000 3.22515
23.98202 0.00000 0.75225
20.95988 0.00000 3.73974
28.02700 0.00000 2.43039
29.21961 0.00000 1.24097
28.63004 0.00000 1.06904
26.15994 0.00000 1.64027
26.40497 0.00000 3.58537
27.63523 0.00000 0.24890
22.63056 0.00000 0.64601
21.42760 0.00000 1.10836
24.27338 0.00000 4.64981
20.02943 0.00000 1.13029
25.83351 0.00000 1.03312
25.50190 0.00000 0.91783
29.97457 0.00000 3.40556
25.63554 0.00000 4.05056
29.88905 0.00000 3.32672
27.56910 0.00000 4.02899
22.76714 0.00000 0.47593
25.17028 0.00000 0.25444
25.49912 0.00000 3.95427
29.33754 0.00000 0.55651
24.46105 0.00000 2.92491
28.29337 0.00000 0.09505
26.39009 0.00000 1.83872
26.72677 0.00000 1.86672
24.58649 0.00000 2.42816
20.86608 0.00000 1.77226
27.72893 0.00000 4.74406
24.55599 0.00000 3.51308
24.86534 0.00000 2.14781
24.20687 0.00000 0.21383
22.29084 0.00000 0.01361
23.83174 0.00000 1.95702
29.07551 0.00000 2.79352
24.24095 0.00000 3.71339
22.49101 0.00000 2.13100
20.83723 0.00000 4.64518
24.37243 0.00000 1.70333
26.27506 0.00000 0.54406
22.67883 0.00000 0.31785
20.14587 0.00000 1.67768
29.76323 0.00000 2.75580
21.95404 0.00000 0.37041
28.73740 0.00000 2.76884
23.41385 0.00000 2.50637
26.29908 0.00000 1.98527
27.88885 0.00000 0.47748
29.25709 0.00000 2.06267
28.13713 0.00000 4.26924
21.95822 0.00000 3.75047
20.43776 0.00000 0.33874
25.62843 0.00000 0.46600
27.92611 0.00000 1.30474
22.84184 0.00000 0.41581
28.90438 0.00000 0.29680
28.34803 0.00000 4.49756
27.39820 0.00000 0.78263
29.31586 0.00000 3.46179
22.16620 0.00000 0.90328
27.74709 0.00000 4.72610
21.92676 0.00000 0.39271
23.06760 0.00000 4.24143
27.18058 0.00000 2.67820
23.26208 0.00000 1.81201
27.30470 0.00000 2.01570
29.98288 0.00000 1.44504
28.40638 0.00000 0.04976
24.28787 0.00000 1.13577
29.55956 0.00000 1.20887
25.07310 0.00000 1.46860
23.56399 0.00000 1.03089
21.35095 0.00000 4.80673
28.15346 0.00000 2.44019
26.99211 0.00000 0.98344
26.91182 0.00000 0.90943
23.83252 0.00000 1.23970
27.85766 0.00000 4.33303
28.66439 0.00000 1.06038
25.51991 0.00000 3.41949
29.05800 0.00000 0.32131
21.31555 0.00000 3.60165
27.20536 0.00000 3.35019
24.02280 0.00000 1.24595
20.85941 0.00000 2.92499
29.60544 0.00000 2.02159
21.57434 0.00000 0.87350
26.77780 0.00000 2.59112
28.94327 0.00000 2.18873
21.05784 0.00000 1.25656
29.68843 0.00000 1.22361
28.16531 0.00000 0.14661
20.91409 0.00000 3.66023
29.13161 0.00000 4.46348
27.12267 0.00000 3.16753
27.48794 0.00000 0.71117
24.61169 0.00000 4.45605
26.68911 0.00000 2.38089
26.21378 0.00000 3.16914
26.63892 0.00000 3.21017
24.91797 0.00000 1.02254
25.41435 0.00000 0.38230
23.97418 0.00000 4.52769
27.39208 0.00000 3.63485
21.64040 0.00000 4.05968
22.19749 0.00000 0.01299
27.66310 0.00000 1.01272
27.21841 0.00000 3.62374
25.14136 0.00000 2.06762
27.27053 0.00000 3.83024
24.12642 0.00000 2.87109
29.99641 0.00000 2.61752
22.17589 0.00000 0.86237
21.95019 0.00000 0.33736
27.31089 0.00000 3.71797
20.71794 0.00000 3.61112
21.03115 0.00000 1.10078
27.86022 0.00000 2.29856
22.64141 0.00000 3.44301
27.51060 0.00000 2.35687
25.65441 0.00000 4.98833
28.12186 0.00000 4.41055
28.51396 0.00000 3.69207
28.26256 0.00000 4.48055
21.23263 0.00000 3.75756
22.93566 0.00000 1.75105
26.42134 0.00000 4.73872
28.54397 0.00000 4.66063
20.61387 0.00000 1.97849
24.45476 0.00000 2.48481
24.56388 0.00000 1.27615
21.41950 0.00000 4.77338
23.13586 0.00000 0.98563
23.42225 0.00000 4.00970
25.15764 0.00000 2.69896
22.68482 0.00000 4.70641
27.45247 0.00000 4.66686
22.70561 0.00000 3.39307
28.76694 0.00000 4.09168
28.76312 0.00000 2.93779
22.67281 0.00000 1.69662
29.93496 0.00000 2.89912
22.84951 0.00000 0.12132
26.37399 0.00000 2.68759
29.68043 0.00000 2.18455
26.77271 0.00000 3.67915
21.67110 0.00000 0.80847
27.77548 0.00000 3.03558
25.80256 0.00000 4.60408
28.14630 0.00000 2.21506
20.51008 0.00000 0.46995
22.20151 0.00000 4.34125
24.75672 0.00000 0.62244
28.43491 0.00000 0.64846
26.50514 0.00000 4.78126
28.39367 0.00000 3.00655
27.41434 0.00000 3.53528
26.21120 0.00000 1.31774
26.00353 0.00000 2.74864
29.12320 0.00000 3.42983
27.56403 0.00000 3.18652
24.03878 0.00000 3.77539
21.92077 0.00000 4.68317
25.40447 0.00000 1.44561
24.91865 0.00000 1.21641
21.64924 0.00000 2.17295
23.42539 0.00000 4.56004
20.55519 0.00000 2.03322
20.22324 0.00000 4.39773
23.15537 0.00000 0.64936
25.47516 0.00000 0.83396
24.26093 0.00000 1.76096
20.60841 0.00000 4.83633
27.49068 0.00000 4.44555
25.51925 0.00000 2.35829
27.06730 0.00000 1.45690
28.59332 0.00000 2.79212
26.78228 0.00000 2.69035
28.33348 0.00000 2.46653
24.05042 0.00000 0.58747
27.20120 0.00000 1.33403
25.90049 0.00000 4.08506
29.26914 0.00000 3.74245
28.67503 0.00000 2.10550
23.30994 0.00000 1.68509
23.01776 0.00000 4.09795
23.83660 0.00000 2.05063
24.01176 0.00000 2.91636
23.55195 0.00000 1.62468
28.67400 0.00000 1.08565
23.99433 0.00000 1.04547
29.26608 0.00000 2.00671
29.87367 0.00000 1.00665
24.67813 0.00000 3.16074
21.29582 0.00000 0.22944
23.84012 0.00000 1.00016
25.71720 0.00000 4.03942
25.99745 0.00000 2.51379
26.11669 0.00000 3.67059
27.36114 0.00000 1.40602
20.24209 0.00000 2.37223
24.96806 0.00000 3.48879
25.97455 0.00000 2.53255
24.88381 0.00000 4.96935
29.15432 0.00000 3.46145
24.62710 0.00000 4.49188
29.88840 0.00000 0.32442
23.31313 0.00000 3.29528
23.40197 0.00000 1.73336
24.11485 0.00000 4.28333
28.93151 0.00000 2.44881
20.29942 0.00000 4.46038
29.36385 0.00000 0.38296
23.08674 0.00000 3.78298
22.43372 0.00000 0.59641
22.87285 0.00000 2.05297
21.19965 0.00000 4.66721
24.10785 0.00000 1.68421
25.09358 0.00000 1.79078
25.26981 0.00000 2.19660
29.60856 0.00000 4.32743
23.43967 0.00000 1.69679
20.14380 0.00000 2.68040
20.64965 0.00000 3.31007
22.58495 0.00000 0.16711
29.72051 0.00000 2.56912
25.72109 0.00000 3.25021
22.00386 0.00000 1.14979
25.64381 0.00000 2.16744
26.11065 0.00000 3.30678
21.54109 0.00000 1.47009
27.89770 0.00000 3.18017
24.28584 0.00000 3.57355
23.97548 0.00000 2.59154
20.37911 0.00000 1.20680
29.10713 0.00000 1.29082
21.14196 0.00000 2.07715
26.14319 0.00000 4.54442
26.01293 0.00000 1.25727
27.06567 0.00000 4.31812
24.75091 0.00000 0.34838
26.67941 0.00000 3.61417
21.20887 0.00000 3.88374
23.72729 0.00000 2.78624
25.37859 0.00000 2.50123
26.43486 0.00000 3.15979
29.32185 0.00000 3.65344
25.89208 0.00000 4.32897
23.34241 0.00000 0.16113
27.42071 0.00000 1.96906
25.08439 0.00000 3.52078
28.86931 0.00000 1.49513
25.77705 0.00000 0.05558
23.15180 0.00000 2.09187
20.04581 0.00000 0.87737
25.55960 0.00000 0.08707
20.91222 0.00000 1.69753
26.26886 0.00000 0.14955
21.32664 0.00000 4.73341
21.21891 0.00000 3.52124
20.17462 0.00000 4.86499
22.57021 0.00000 1.48239
22.77050 0.00000 2.00290
24.55292 0.00000 2.95332
26.52863 0.00000 2.54724
20.34469 0.00000 3.94577
26.97560 0.00000 0.22851
29.45801 0.00000 3.37373
29.51718 0.00000 0.88908
27.17409 0.00000 1.34737
21.28098 0.00000 4.28956
27.87505 0.00000 3.29078
21.61063 0.00000 1.96708
26.71545 0.00000 0.89173
22.29644 0.00000 3.93941
20.71543 0.00000 0.63135
24.22119 0.00000 3.09033
28.50227 0.00000 2.20866
27.65550 0.00000 2.01480
23.12852 0.00000 3.88503
27.91162 0.00000 2.62143
27.07608 0.00000 1.64119
21.57261 0.00000 4.51800
29.49160 0.00000 0.55693
26.36700 0.00000 0.52332
20.85790 0.00000 1.86723
23.42086 0.00000 3.45407
29.22164 0.00000 3.60336
22.36161 0.00000 2.78536
29.30426 0.00000 2.28982
29.12634 0.00000 0.61373
20.41583 0.00000 0.94519
21.56054 0.00000 1.37055
26.40575 0.00000 1.08327
26.85504 0.00000 2.53524
23.94116 0.00000 2.13021
25.63746 0.00000 0.85494
27.37508 0.00000 3.44558
28.07632 0.00000 3.48283
25.64005 0.00000 3.52673
20.84270 0.00000 0.33868
28.84812 0.00000 4.55380
24.66885 0.00000 1.83927
29.43962 0.00000 3.29866
29.77631 0.00000 1.14332
27.99902 0.00000 2.68385
20.91821 0.00000 0.14686
29.83453 0.00000 2.86999
28.83880 0.00000 2.96203
28.75226 0.00000 1.58966
27.09888 0.00000 4.57459
27.94748 0.00000 3.64088
23.40666 0.00000 0.47853
26.40725 0.00000 3.42079
25.30029 0.00000 0.26305
22.88692 0.00000 3.84390
20.75276 0.00000 4.00317
25.97420 0.00000 0.55128
29.52409 0.00000 1.69962
22.47235 0.00000 1.88109
26.25299 0.00000 1.13598
22.66596 0.00000 0.31618
28.80974 0.00000 4.28642
20.59450 0.00000 2.78734
28.53254 0.00000 2.71210
24.77943 0.00000 1.75157
24.07761 0.00000 3.18083
28.64251 0.00000 1.88791
20.11983 0.00000 3.76068
21.93563 0.00000 3.68224
24.43901 0.00000 0.68729
26.03010 0.00000 1.53213
24.96295 0.00000 3.30486
21.87983 0.00000 2.24391
29.09891 0.00000 3.02807
29.82050 0.00000 3.29114
25.77846 0.00000 3.44094
27.47230 0.00000 1.99320
21.55351 0.00000 3.36767
20.12652 0.00000 0.84668
29.15829 0.00000 4.79156
26.15430 0.00000 4.34160
27.47175 0.00000 4.27982
24.62673 0.00000 0.63616
27.89102 0.00000 1.37162
21.90410 0.00000 0.85624
26.00476 0.00000 1.78349
29.31990 0.00000 0.25044
26.90321 0.00000 3.90085
23.30353 0.00000 1.39243
22.64329 0.00000 0.40862
29.31662 0.00000 1.19294
27.47663 0.00000 1.15038
23.87434 0.00000 2.81806
22.35850 0.00000 4.03809
26.50916 0.00000 3.43047
21.37798 0.00000 4.30708
23.28310 0.00000 0.63681
22.20778 0.00000 3.40192
22.65750 0.00000 0.54915
29.04815 0.00000 3.96369
20.07489 0.00000 0.66517
22.07787 0.00000 2.82529
25.91023 0.00000 2.51077
25.26629 0.00000 0.34917
27.65542 0.00000 4.91362
21.51671 0.00000 2.05756
20.12733 0.00000 3.05379
23.11958 0.00000 1.91539
29.24947 0.00000 1.19379
21.13974 0.00000 0.67322
20.40513 0.00000 2.68881
20.49972 0.00000 3.39038
23.58030 0.00000 3.47786
24.15003 0.00000 3.49334
23.58538 0.00000 3.14731
20.91320 0.00000 1.19958
27.70071 0.00000 4.62780
25.77055 0.00000 4.94949
21.75419 0.00000 1.06759
21.77895 0.00000 4.45664
27.52870 0.00000 1.69393
27.55362 0.00000 3.36263
28.82283 0.00000 0.19562
23.85037 0.00000 1.65421
23.23129 0.00000 1.73600
24.43425 0.00000 2.05048
20.95722 0.00000 1.04325
20.68287 0.00000 0.82107
20.67908 0.00000 4.36935
20.06898 0.00000 3.57032
28.99157 0.00000 2.45341
24.33962 0.00000 3.16489
27.06881 0.00000 4.95749
29.72895 0.00000 4.66399
25.04042 0.00000 1.31470
22.99816 0.00000 0.90813
23.34865 0.00000 3.70211
20.63449 0.00000 3.56958
28.48204 0.00000 0.86803
23.59415 0.00000 0.49219
28.50035 0.00000 4.69407
27.57001 0.00000 1.06301
29.52943 0.00000 1.56600
20.77266 0.00000 4.37568
22.24722 0.00000 4.55706
20.93327 0.00000 2.44892
21.64969 0.00000 4.26519
24.90970 0.00000 0.27687
29.22815 0.00000 3.91020
21.22427 0.00000 0.14530
28.35650 0.00000 2.42018
25.90431 0.00000 1.09251
24.35044 0.00000 3.83116
28.72966 0.00000 2.43272
28.63805 0.00000 2.34777
24.90703 0.00000 2.22689
28.82404 0.00000 4.82886
25.69408 0.00000 1.34506
20.08610 0.00000 0.81082
21.22904 0.00000 2.41241
23.04010 0.00000 0.45591
20.74739 0.00000 1.46477
20.72901 0.00000 3.58575
22.01673 0.00000 1.20523
27.08699 0.00000 3.54792
20.52910 0.00000 1.45513
23.41674 0.00000 1.24936
20.90079 0.00000 0.02661
25.77028 0.00000 1.98886
28.19184 0.00000 3.89366
25.34696 0.00000 1.61175
28.60792 0.00000 4.47219
22.97495 0.00000 4.19368
27.27237 0.00000 3.65189
20.87416 0.00000 2.28486
23.69299 0.00000 2.61687
27.20031 0.00000 1.26810
24.47453 0.00000 0.52364
22.03109 0.00000 3.02351
21.52879 0.00000 4.63358
29.83773 0.00000 4.49384
27.47092 0.00000 3.07899
25.56965 0.00000 3.50719
21.72797 0.00000 2.89913
23.50330 0.00000 0.16938
21.95093 0.00000 0.42351
29.11123 0.00000 1.44277
22.04384 0.00000 4.70305
20.73300 0.00000 3.72851
23.63132 0.00000 3.96711
27.19625 0.00000 0.85178
23.16920 0.00000 4.12559
24.66379 0.00000 3.92902
28.83291 0.00000 3.04016
29.48674 0.00000 3.86018
24.04556 0.00000 3.49813
27.82642 0.00000 3.00468
22.82808 0.00000 2.81660
25.30378 0.00000 2.53905
24.10270 0.00000 1.75480
26.91059 0.00000 2.50381
22.41918 0.00000 1.53339
28.38294 0.00000 3.00300
29.53312 0.00000 0.47966
22.19353 0.00000 1.30913
25.30782 0.00000 0.95025
23.16301 0.00000 4.70040
25.44342 0.00000 1.73697
24.65475 0.00000 1.37666
26.25038 0.00000 0.42549
27.61915 0.00000 3.90657
27.26147 0.00000 1.02071
23.21898 0.00000 4.88712
28.92378 0.00000 3.14609
26.37150 0.00000 2.50940
28.95666 0.00000 3.85900
27.87000 0.00000 0.54013
24.81459 0.00000 1.00031
26.20765 0.00000 4.85422
26.32252 0.00000 1.57013
28.24235 0.00000 4.08088
27.88196 0.00000 2.64371
28.49622 0.00000 2.65978
27.78492 0.00000 3.47936
24.13655 0.00000 3.97933
28.07109 0.00000 0.93416
29.97118 0.00000 0.19110
28.60111 0.00000 4.66401
24.50678 0.00000 1.15788
26.23208 0.00000 1.44777
23.06821 0.00000 3.85552
26.83120 0.00000 2.73819
20.65294 0.00000 4.63440
25.67408 0.00000 3.97012
24.92610 0.00000 1.59298
28.78508 0.00000 2.68772
20.05524 0.00000 0.30908
22.01138 0.00000 3.07402
28.11168 0.00000 2.49655
24.52419 0.00000 0.69760
21.48524 0.00000 1.33264
28.04638 0.00000 4.32637
26.86694 0.00000 2.93552
28.19654 0.00000 2.79553
23.05144 0.00000 3.28745
26.78860 0.00000 0.04449
28.81069 0.00000 4.81569
24.61262 0.00000 3.61864
24.16960 0.00000 1.39898
23.34723 0.00000 2.39081
24.26964 0.00000 3.26513
23.76334 0.00000 1.90684
28.70506 0.00000 1.38876
25.93035 0.00000 1.83656
22.25255 0.00000 0.09062
21.05293 0.00000 2.97248
27.09823 0.00000 0.80971
29.33154 0.00000 2.95229
29.68060 0.00000 1.23578
22.06130 0.00000 0.53049
28.26436 0.00000 1.33910
27.61001 0.00000 0.52315
29.48125 0.00000 2.32281
28.29253 0.00000 4.88425
21.50635 0.00000 3.00214
21.46957 0.00000 0.51377
29.05806 0.00000 0.69595
24.44390 0.00000 2.05234
23.20900 0.00000 2.43698
26.14086 0.00000 1.19376
24.98143 0.00000 1.82501
27.52568 0.00000 3.71956
23.99813 0.00000 4.02843
21.50212 0.00000 4.65255
25.86180 0.00000 2.13207
24.08558 0.00000 0.81030
26.59167 0.00000 0.39214
29.67716 0.00000 0.70817
25.17625 0.00000 0.88869
20.35809 0.00000 2.42394
21.33237 0.00000 1.72719
28.25703 0.00000 2.19093
29.88089 0.00000 1.14547
29.13647 0.00000 0.48949
20.97055 0.00000 2.72915
26.01397 0.00000 2.83363
26.76929 0.00000 0.74044
21.44318 0.00000 1.71620
27.77099 0.00000 3.63416
24.79365 0.00000 1.45280
28.13252 0.00000 0.84835
27.45812 0.00000 2.93187
23.22594 0.00000 2.25970
24.82525 0.00000 0.37046
27.18354 0.00000 3.01684
26.55980 0.00000 0.36116
26.99203 0.00000 3.15396
25.65366 0.00000 1.03328
27.86113 0.00000 0.73077
25.91842 0.00000 3.14382
29.01662 0.00000 3.73792
21.31823 0.00000 1.26855
26.32438 0.00000 3.38644
25.99531 0.00000 2.74527
20.34284 0.00000 3.48069
27.49298 0.00000 1.25599
21.10856 0.00000 1.92538
24.91695 0.00000 0.14264
25.44844 0.00000 3.76840
24.27424 0.00000 4.41548
20.62790 0.00000 1.40629
26.87202 0.00000 4.39194
22.29126 0.00000 3.46758
22.59527 0.00000 2.56060
27.13098 0.00000 4.06665
26.20518 0.00000 0.70650
23.88057 0.00000 3.16832
29.26273 0.00000 4.69214
23.34947 0.00000 0.26675
25.91216 0.00000 1.17429
29.93259 0.00000 3.03059
20.97498 0.00000 3.48404
20.31065 0.00000 4.74736
25.02833 0.00000 3.67949
25.86251 0.00000 1.72515
29.70980 0.00000 0.27943
25.44998 0.00000 3.77028
29.14111 0.00000 0.63221
26.69422 0.00000 0.72153
26.13276 0.00000 0.76587
25.67072 0.00000 3.36838
25.36928 0.00000 3.64621
20.82889 0.00000 3.29066
27.30619 0.00000 3.85163
26.92714 0.00000 4.44982
26.45678 0.00000 3.55816
24.90132 0.00000 2.36024
20.64289 0.00000 4.82030
25.68191 0.00000 4.51291
21.97703 0.00000 4.93042
1.41517 15.20445 6.08425
4.09270 17.12775 5.43183
0.56140 24.96838 7.47833
4.38585 17.59910 0.78279
4.99937 19.92068 4.59243
-4.74851 21.56576 6.17754
4.54840 22.07656 1.05052
-1.25272 24.84052 2.53526
-4.51161 17.84468 8.21741
4.91438 19.07867 7.63856
0.73536 15.05437 8.62981
2.27484 24.45254 0.53811
3.42606 16.35829 5.87172
-3.56878 23.50197 9.48945
-4.69530 21.71876 5.19403
-2.95043 15.96330 1.36896
-4.98120 20.43322 5.98992
1.53686 15.24205 2.18097
4.12483 22.82591 7.36122
-4.73833 18.40370 9.28005
3.39144 23.67398 1.73066
3.26480 16.21304 5.59401
4.27529 22.59266 1.26469
4.99995 20.02149 4.63992
1.93820 24.60905 7.32427
3.33909 16.27837 3.34926
-2.32643 15.57420 2.96944
-3.84488 16.80361 0.86786
4.80883 18.63063 5.15879
0.38863 24.98487 1.47988
4.33897 17.51537 6.34976
0.88343 24.92134 6.34791
1.65514 24.71811 3.91501
4.99870 20.11397 8.56451
3.08588 23.93413 4.04203
2.01971 15.42608 2.30617
-4.94498 19.26030 8.75998
4.52954 17.88263 0.43606
-4.73185 18.38458 5.66821
4.03756 22.94926 5.17618
-4.90049 19.00743 1.57575
-0.72466 24.94721 4.15975
4.10753 22.85100 0.30468
-3.92092 16.89736 0.01094
4.99321 19.73950 0.19466
-2.33789 15.58024 4.23434
-1.83283 24.65196 2.79833
-4.39114 22.39121 0.00434
3.23563 23.81192 9.85244
4.12897 17.18014 4.63851
4.96814 20.56356 3.10214
-1.06662 15.11509 0.52400
2.78879 24.15002 3.91818
4.02872 22.96132 8.14537
4.17600 17.25027 0.86448
-4.79370 18.57857 7.69003
-1.44289 24.78728 8.75666
-4.16852 17.23894 2.40952
-3.83759 23.20514 3.27108
0.33780 15.01142 5.02614
-0.74992 15.05656 7.08188
4.95458 20.67242 9.87754
3.29039 16.23525 7.35036
4.98622 19.62908 2.24151
-4.87073 21.12959 8.84243
-0.51554 24.97335 5.54342
-4.98478 19.61022 3.01820
-1.99191 24.58610 7.09892
