4.92203 -0.87957 0.15973
0.04828 -4.99977 2.69394
4.89232 1.03210 3.83390
3.26838 3.78388 1.04243
4.38984 2.39359 6.20507
-2.95609 4.03256 6.28682
1.18669 -4.85713 7.57586
-3.80591 -3.24269 1.61496
-4.74891 1.56456 3.08428
-3.89353 -3.13694 7.13526
2.09381 -4.54048 7.67588
4.98438 -0.39492 0.32449
-3.34084 3.72005 3.97477
3.10140 3.92190 1.69460
-3.94186 3.07599 3.68590
-4.10304 -2.85746 2.92027
-3.65728 -3.40945 5.27462
4.37937 -2.41269 9.96153
2.54530 4.30366 0.78457
-1.08972 4.87981 9.41828
2.75793 4.17059 4.47701
3.51298 3.55794 2.94321
1.52440 -4.76196 4.31255
3.16366 -3.87185 8.79943
0.28780 -4.99171 3.65805
-3.28832 -3.76655 8.53231
-0.92474 -4.91374 8.41847
-4.78533 -1.44936 5.37890
3.65449 -3.41243 3.71282
-4.99942 -0.07639 5.91053
-4.94164 -0.76171 4.91632
-4.51390 2.15051 1.33143
3.26613 -3.78582 0.80663
0.32050 -4.98972 8.05449
1.09127 4.87946 4.97774
-3.84180 3.20009 7.55953
-2.34233 4.41741 1.34611
-4.11848 2.83516 9.56757
4.68038 -1.75900 4.28299
2.52628 4.31485 1.70396
4.96810 -0.56392 1.82237
3.27226 3.78052 1.56112
-1.43842 -4.78863 3.76939
-4.17936 -2.74462 9.10941
-4.94653 -0.72926 7.99712
-4.97672 0.48189 1.79597
-0.65502 4.95691 7.98265
4.26541 2.60889 3.04765
3.64982 -3.41743 6.65516
4.65005 1.83767 1.81970
3.62365 3.44517 9.21569
4.89232 1.03208 4.73194
-0.12472 4.99844 3.93442
4.52378 -2.12966 8.11438
3.45885 -3.61059 3.45495
3.70167 -3.36120 8.33384
2.67557 4.22390 0.45597
-4.88358 1.07266 8.19473
3.12026 3.90691 5.59912
-0.90883 -4.91671 9.39531
3.16249 3.87281 3.73187
-2.72880 4.18971 6.52566
-1.44330 -4.78716 0.33725
-4.94387 0.74712 8.92706
4.17024 -2.75846 4.43081
-2.67777 -4.22251 9.37990
4.73804 1.59716 3.75333
-3.08076 -3.93814 7.82414
4.60543 1.94679 7.67000
3.25571 -3.79478 6.49490
-0.45841 -4.97894 3.50875
4.54702 2.07957 1.69786
-2.21864 4.48081 7.06410
-4.29587 -2.55842 4.41584
-3.60548 3.46417 8.14423
-2.22144 4.47942 3.58330
-4.98363 -0.40432 7.27485
2.40336 -4.38450 3.13966
-0.46589 4.97825 7.27674
1.93458 -4.61058 9.01463
-4.84113 1.25039 7.53045
0.89679 4.91892 2.43002
0.36418 4.98672 7.93651
-4.86107 -1.17047 9.88158
-4.90424 0.97387 2.50811
-4.31084 2.53311 4.98403
3.98481 -3.02014 8.44699
-2.74177 -4.18123 1.83745
0.79583 4.93626 3.24626
-1.56837 4.74765 9.33433
-1.73421 4.68962 3.51836
0.53743 4.97103 2.41286
3.39936 -3.66665 1.05512
-4.98373 -0.40309 6.69088
4.16735 2.76283 0.34721
-4.50644 -2.16611 2.18285
4.81351 -1.35282 7.16863
3.92395 -3.09881 5.22454
0.05074 -4.99974 8.27025
-4.66240 -1.80610 3.55959
4.01036 -2.98614 7.60233
-0.41477 4.98277 5.79239
-3.37545 3.68868 6.18480
-4.85910 1.17864 7.26763
2.22501 -4.47765 8.35650
4.13341 2.81335 4.82275
3.72542 -3.33485 6.56442
4.59261 -1.97686 9.40108
-0.30244 -4.99084 5.46054
-0.69041 4.95210 1.90499
-4.99384 0.24821 5.22278
4.97421 -0.50723 4.04849
2.62140 -4.25773 4.04484
4.59771 -1.96496 4.52365
2.13996 4.51891 4.00067
-1.14623 -4.86684 7.27833
4.99600 -0.20002 2.88123
3.80375 3.24522 9.44517
3.84768 3.19301 7.73680
-4.99205 -0.28189 4.73419
-2.63486 4.24941 3.40889
2.04109 -4.56442 1.65079
4.07533 2.89684 5.27362
3.24574 -3.80331 4.22211
2.90710 -4.06802 8.61485
-2.58990 -4.27696 8.75138
-1.51874 -4.76376 4.75557
-1.08100 4.88174 2.59986
-1.56724 -4.74803 6.78524
4.98725 0.35683 9.58578
-3.60606 -3.46358 7.57939
4.96136 -0.62044 1.01530
1.85003 4.64515 6.57915
1.38625 -4.80399 8.98902
1.29597 -4.82913 7.37672
-3.26554 -3.78632 5.10057
1.54188 4.75632 5.12731
4.92706 0.85092 2.48103
-4.57243 -2.02309 4.54155
-0.93134 -4.91249 0.10508
4.38956 2.39410 4.32430
3.96186 -3.05019 8.91551
-2.28887 4.44535 8.30647
-4.59530 -1.97059 3.66910
-3.50639 -3.56444 2.73987
4.99324 0.25988 0.79010
-3.06159 3.95306 8.66062
-1.73560 -4.68910 2.03358
-1.32040 4.82250 0.10476
-4.97994 -0.44745 0.21473
4.98976 0.31988 7.36052
-4.94050 -0.76904 0.76445
2.36835 4.40351 8.23407
-2.08137 -4.54620 2.76117
4.61474 1.92462 4.88856
3.09444 3.92739 8.00876
-2.30740 4.43575 3.70383
-4.97081 -0.53952 5.56469
3.53019 3.54087 5.95799
4.90518 0.96913 5.20427
-4.93320 -0.81460 7.60868
4.83847 -1.26063 0.05654
4.91301 -0.92861 5.19287
-4.81563 -1.34526 1.24055
-4.13845 2.80593 5.74940
4.14539 2.79567 6.73220
-1.24792 4.84177 5.33408
3.82659 3.21826 5.68460
-3.08714 -3.93314 7.99954
-4.16844 -2.76118 5.53978
-0.72656 -4.94693 1.20718
4.96276 -0.60913 8.32056
4.86007 -1.17462 0.12828
4.08198 2.88747 0.24639
-4.96608 -0.58146 7.38206
3.10640 -3.91794 1.90832
-2.62366 -4.25634 9.01534
-4.75572 1.54374 5.36872
4.90010 -0.99448 4.88702
2.12652 -4.52525 0.64550
-4.92223 -0.87842 5.64859
4.80432 1.38509 7.59302
-1.25641 4.83957 2.05870
-4.01592 2.97865 3.07940
4.11224 2.84420 4.31297
0.15929 4.99746 1.45372
0.52597 -4.97226 2.21172
-4.72683 -1.63006 9.29872
4.62578 1.89794 1.24137
4.95111 -0.69748 3.57292
-3.98242 3.02330 2.39416
-4.93217 -0.82079 7.83836
-3.63315 3.43515 7.87870
-0.72609 -4.94700 3.83087
4.28125 2.58281 0.72686
-1.28571 4.83187 7.15929
3.98329 -3.02216 5.44873
-1.37043 -4.80853 9.63351
4.80628 1.37830 0.24954
-2.80424 -4.13959 8.99720
-4.69387 -1.72268 0.97481
-4.97866 -0.46150 4.13918
4.86098 -1.17086 1.29971
2.49122 4.33518 5.19823
-3.48535 -3.58502 7.34629
-1.24862 -4.84158 3.62456
-2.41579 4.37767 6.14941
4.90657 0.96207 1.09307
4.98441 0.39455 1.45457
4.47588 2.22856 3.26746
4.94033 -0.77014 2.78442
4.52467 2.12777 1.88324
4.97918 0.45584 1.39259
3.56876 -3.50199 1.18951
-3.74411 -3.31385 3.46520
4.42170 2.33422 2.38963
2.54190 -4.30566 9.99388
2.55533 4.29771 7.13119
2.96841 -4.02350 1.06685
0.60167 -4.96367 8.83179
2.88771 -4.08181 0.94963
3.07951 3.93911 8.32936
0.29703 4.99117 4.54201
4.88542 -1.06427 4.64629
-0.21185 4.99551 6.61836
4.78583 -1.44769 4.82547
-0.92800 -4.91313 2.11578
-0.23929 4.99427 3.62520
3.09778 -3.92476 1.20444
-4.26883 2.60328 5.35395
-3.48444 -3.58590 7.86119
-4.57258 -2.02276 3.92005
-4.97963 0.45090 8.65418
-4.19532 -2.72017 3.19934
-2.83311 4.11989 1.03776
2.90869 -4.06688 0.54782
0.82713 -4.93111 7.45058
0.38759 4.98496 2.98985
-4.99739 0.16154 1.92764
-4.97751 0.47370 3.53619
-2.71801 4.19672 2.19881
-4.93890 -0.77928 5.72868
-2.82422 -4.12599 4.63764
-4.25122 -2.63195 3.07591
-3.03786 3.97132 7.52920
2.86875 4.09516 1.81023
-3.82202 -3.22369 1.07706
-4.01227 2.98356 8.64160
0.70263 -4.95039 3.45152
-2.28207 4.44884 5.11959
0.89861 4.91859 9.67536
-3.09837 3.92430 0.53197
0.65305 4.95717 7.96560
4.10677 -2.85209 6.77391
3.27127 -3.78138 6.50518
1.83609 4.65067 9.11793
-2.43811 -4.36527 2.40556
-4.25579 2.62454 0.68903
-4.87455 1.11301 9.80206
-4.92771 0.84714 0.45892
4.05763 2.92158 6.37619
4.26350 -2.61201 9.93799
1.30457 -4.82681 1.35854
4.92117 -0.88435 2.14402
-0.19565 -4.99617 2.66129
0.58240 4.96596 4.61743
2.34960 4.41354 0.02882
4.94289 0.75353 8.66518
3.75826 3.29780 8.85134
-0.32619 4.98935 4.57539
4.37897 -2.41343 7.63322
3.47996 3.59025 3.64580
0.10577 -4.99888 3.62440
2.11788 -4.52930 5.95241
1.16332 4.86279 3.80943
-4.86511 -1.15358 3.57654
-4.61708 1.91901 8.87861
-4.97367 -0.51243 3.57437
4.72721 -1.62896 5.96330
-0.54570 -4.97013 5.77617
-4.33200 -2.49676 1.29190
2.81508 4.13223 1.51878
-1.72384 -4.69344 1.73176
-3.29924 -3.75699 2.45499
0.32738 4.98927 9.28784
-4.59488 1.97158 6.29031
4.79663 -1.41152 9.89616
1.73877 4.68793 6.28029
-3.76766 -3.28706 0.67422
2.92938 4.05201 2.76640
4.16762 -2.76242 4.11149
-4.81194 -1.35838 7.87972
-1.04033 4.89057 9.65262
-0.52473 -4.97239 9.91942
0.14937 -4.99777 0.00992
-3.80486 -3.24393 1.19157
-4.00040 2.99947 2.92507
-4.49926 2.18097 3.74513
-4.67738 -1.76695 9.78292
-4.86212 -1.16612 9.63140
3.85564 -3.18340 1.53457
-1.37726 4.80657 6.27565
4.78759 -1.44188 7.89590
4.09655 -2.86675 8.98071
2.56126 4.29418 7.93048
4.62469 -1.90059 8.95314
4.34207 -2.47919 4.60705
-0.39944 -4.98402 7.91990
2.54371 4.30459 7.25174
0.28387 4.99194 0.16792
0.16344 -4.99733 5.69572
4.86293 1.16272 1.11316
-4.86149 -1.16872 9.45436
4.04535 2.93856 1.18368
-0.33840 4.98854 8.78894
-4.17497 2.75130 4.42156
3.58040 -3.49009 1.21970
4.58332 1.99829 7.96122
0.95190 4.90855 1.33362
-4.03078 -2.95852 5.68878
4.98760 -0.35195 3.25420
-0.75460 4.94273 1.06199
-1.01121 4.89668 3.97146
-3.13694 3.89354 0.69088
-3.03223 3.97562 2.57824
-1.67314 -4.71175 5.51067
4.37855 -2.41418 6.18024
-4.90528 -0.96861 9.41018
-2.13271 -4.52234 1.36693
-3.53133 3.53973 0.59239
-4.27057 2.60043 6.62894
-4.21997 2.68176 1.77655
4.19506 2.72056 6.47482
3.57048 3.50024 1.62535
4.99777 0.14946 6.34393
-2.72138 -4.19453 7.96955
4.51857 -2.14067 7.67246
-4.42311 2.33154 0.74006
2.05752 -4.55704 0.27218
-4.11086 -2.84619 4.35337
-3.16072 3.87425 9.51135
-3.18403 -3.85512 4.82800
0.14334 -4.99794 5.92120
0.16777 4.99718 8.68734
0.83317 4.93009 7.97567
-1.82952 4.65326 8.68960
-1.05271 -4.88792 9.04772
-4.55598 -2.05988 8.25154
3.32432 -3.73482 6.20155
-3.76145 3.29416 0.33008
-4.96162 -0.61835 4.32243
1.49940 -4.76988 1.85161
1.92622 4.61407 9.06447
3.99902 -3.00131 7.53831
1.78712 4.66971 2.96192
4.13136 -2.81636 7.22095
4.84094 1.25112 6.93602
4.05200 2.92938 8.35442
-0.41790 -4.98251 2.94524
4.97207 0.52775 1.39986
3.40992 -3.65683 2.83587
1.28664 4.83162 4.89616
-1.10310 4.87680 4.34791
3.70306 -3.35966 6.78619
-3.96287 3.04888 9.72732
-4.65401 -1.82761 3.95668
2.38510 4.39446 7.10766
1.03214 -4.89231 2.09585
-4.10048 -2.86113 5.53110
0.83443 4.92988 3.65148
-4.77817 -1.47278 7.02301
4.27152 -2.59887 3.73200
3.66150 -3.40491 6.87210
1.12657 4.87143 0.54390
4.93349 -0.81283 3.43610
4.33654 2.48886 3.60209
4.20150 -2.71061 2.85261
-1.65967 4.71651 2.91130
4.28380 -2.57858 9.73784
4.21026 2.69698 8.50746
-4.63882 -1.86584 4.51701
4.88983 -1.04384 9.39358
-2.18791 -4.49589 0.05645
-0.43406 4.98112 1.63290
-4.93856 0.78140 0.40711
4.90617 -0.96412 4.96587
3.72982 -3.32993 7.75940
4.84131 -1.24969 4.82379
-1.96659 -4.59701 5.02676
-0.44226 4.98040 3.31274
4.05368 2.92706 0.82640
1.67339 4.71166 5.91245
-4.72391 -1.63849 8.00296
-1.86638 -4.63860 7.10193
-4.33068 2.49904 2.74039
3.72890 -3.33096 0.84338
2.64008 -4.24617 1.86904
0.62259 -4.96109 0.61689
4.49641 2.18685 5.66246
-4.80369 -1.38729 3.55856
3.40687 -3.65968 3.80742
-4.99995 0.02170 7.96808
-4.48223 2.21577 3.31157
2.77470 4.15945 7.13830
-2.61200 -4.26350 6.62290
4.99311 0.26234 6.57406
4.97321 -0.51694 5.79043
4.86716 1.14489 2.68790
-3.40658 -3.65995 9.71338
-4.54546 2.08297 5.80852
-0.40875 -4.98326 3.26596
-2.46337 -4.35107 1.82561
1.47390 4.77782 0.04195
1.93476 4.61050 4.47188
-2.27120 4.45440 6.44248
0.51183 -4.97373 3.54145
2.63895 4.24688 3.86415
-4.96854 -0.56001 7.89617
3.16126 -3.87382 0.67781
-1.02271 4.89429 5.22648
-0.29506 -4.99129 2.12997
3.55472 3.51624 3.93266
-4.78233 1.45921 6.04449
-1.85580 -4.64284 4.88635
1.31370 -4.82433 8.76101
-2.95707 -4.03184 8.14740
4.42439 2.32910 4.21912
-0.02094 4.99996 6.70693
-4.98599 -0.37407 7.41557
3.93248 3.08798 1.80501
3.52614 -3.54490 8.02175
0.09166 -4.99916 0.71234
-3.42819 3.63971 5.31359
-4.82095 1.32608 7.55645
-3.40447 -3.66191 5.66695
-4.37787 2.41541 5.76564
4.74304 1.58226 4.94469
2.86668 4.09660 9.72962
0.01928 4.99996 8.39239
-3.65849 -3.40814 7.78686
4.99649 0.18726 9.61802
2.51517 4.32133 0.16295
-4.86527 1.15287 6.11902
-4.77940 1.46879 2.22137
-4.84032 -1.25350 0.47837
1.86421 -4.63947 0.18996
-3.69300 3.37072 2.67668
-3.82774 -3.21689 1.32778
-4.14053 2.80286 1.22943
-1.74075 4.68719 5.88174
-3.75520 -3.30129 0.52372
4.99009 -0.31472 1.99765
-4.83156 1.28687 4.80454
-0.00452 5.00000 9.52117
-4.99997 0.01674 6.19723
-4.81408 -1.35080 1.33451
-0.79815 4.93589 0.97575
4.89315 1.02813 2.45618
4.59960 -1.96053 7.01493
-4.70787 -1.68403 6.34315
3.27542 3.77778 8.51957
4.55773 2.05598 5.24622
-3.76376 3.29152 5.58582
-4.89591 -1.01491 2.00558
2.85009 4.10816 4.88907
3.74446 3.31347 4.75427
-3.16043 3.87449 9.76242
-2.06900 -4.55184 8.14229
-1.91857 -4.61726 8.50263
4.22433 -2.67490 5.65356
4.57846 -2.00940 9.10987
4.80165 -1.39432 1.52904
4.35029 -2.46474 0.58260
3.59070 3.47949 6.33651
-0.60243 -4.96357 5.14273
-0.18272 -4.99666 3.15596
-4.58157 -2.00229 3.84288
4.84038 -1.25327 9.72239
-3.89890 -3.13027 8.77697
-1.38663 -4.80388 6.91273
-0.50757 -4.97417 9.99874
1.27933 -4.83356 5.76333
-0.28416 4.99192 5.74171
1.95625 4.60142 1.54262
-4.13329 -2.81353 8.67525
1.54433 4.75553 3.86775
-4.96976 0.54905 3.48812
-4.68178 1.75525 1.11518
4.63621 -1.87230 3.14001
4.65757 1.81852 5.60695
4.00912 2.98780 2.86302
-4.54641 2.08090 6.53119
3.93983 -3.07859 8.36131
2.44590 4.36091 8.85721
4.80374 -1.38711 9.46415
-2.25033 4.46498 4.08541
1.30257 4.82735 2.95632
-2.32910 4.42440 6.98911
-1.42504 4.79263 2.58282
4.23614 2.65615 8.10125
4.50221 2.17488 6.72932
-3.12479 -3.90330 1.07888
-2.22165 -4.47932 8.78713
4.03984 -2.94614 5.74773
0.40609 4.98348 4.24928
-4.84195 1.24719 7.32325
4.00435 -2.99419 2.94863
-1.47133 -4.77862 7.67660
4.22666 2.67120 7.09913
-4.42761 -2.32299 7.46367
1.41123 4.79671 4.22868
1.25638 -4.83958 5.23125
0.28742 4.99173 7.96205
-2.48554 -4.33844 1.51568
0.22873 4.99477 2.57639
-4.32926 -2.50150 5.69567
-3.81820 3.22822 2.50688
0.66794 -4.95519 7.28005
3.17328 -3.86397 5.84854
3.33300 3.72708 4.71702
4.92395 -0.86875 3.57929
3.63163 -3.43675 4.99401
1.30091 4.82780 4.65245
3.23134 -3.81556 0.73297
1.59973 4.73718 5.17692
-4.98690 -0.36170 6.23028
1.24245 4.84317 9.33341
0.74664 4.94394 2.34824
4.94309 -0.75222 6.14628
-1.82630 4.65453 6.98588
4.94037 -0.76992 5.76375
4.87424 1.11437 0.14802
-4.96961 -0.55047 5.07448
-4.44058 -2.29809 2.49791
-3.17819 3.85994 1.29884
-4.53095 2.11436 9.58878
2.82090 -4.12826 5.10645
2.95177 -4.03572 0.71640
-1.24520 4.84247 4.38238
4.61518 -1.92358 1.44882
3.92003 -3.10377 0.62758
-3.28773 -3.76707 7.74385
0.85692 -4.92602 2.11670
-4.56903 2.03075 0.38268
4.83127 -1.28796 5.56081
4.02338 -2.96857 3.98229
2.51701 4.32026 3.96041
-4.69246 1.72651 6.71182
-0.89929 4.91846 7.84254
4.94745 -0.72297 7.93122
2.47651 -4.34360 7.80963
2.97207 -4.02080 6.96018
4.46813 2.24407 5.88018
-2.88196 -4.08587 9.92560
2.18014 4.49967 4.50425
-4.56577 -2.03807 3.32346
-4.84631 1.23014 9.19125
-2.78264 4.15415 7.30718
4.01325 2.98225 1.67330
-1.03786 4.89110 1.40595
-3.27481 -3.77831 0.98926
4.96272 -0.60942 3.48110
0.86858 -4.92398 3.67631
-4.00079 -2.99894 1.43963
3.01789 -3.98652 2.15757
-4.62862 1.89101 4.37541
-2.01565 -4.57571 2.18963
0.07396 -4.99945 7.65501
0.75173 -4.94317 9.14845
0.34195 4.98829 7.11532
-1.06248 4.88581 4.74776
3.80835 -3.23982 2.79406
3.88758 -3.14431 5.27757
-0.89006 4.92014 4.87796
4.69462 -1.72063 0.93951
4.15837 -2.77633 8.15476
1.87005 4.63712 0.06813
1.13746 -4.86890 8.80907
-0.57533 -4.96679 6.55202
0.35600 4.98731 2.63070
-4.95594 0.66231 7.13982
-2.37369 4.40064 4.78767
3.36529 -3.69795 9.22005
4.29423 2.56116 8.60158
-0.50070 4.97487 0.87193
-1.04959 4.88859 7.27785
4.98621 -0.37103 0.00451
-0.02359 4.99994 5.54315
-1.66702 4.71392 0.05088
2.76719 -4.16445 2.47467
2.81493 4.13233 3.74524
-4.60936 -1.93746 3.21738
4.63121 -1.88464 9.63966
1.79686 -4.66597 4.63249
4.50332 -2.17257 7.37340
-4.27656 -2.59057 7.64040
3.90957 -3.11693 4.26818
-4.36703 -2.43497 7.17159
-4.56445 -2.04103 2.54386
1.96721 4.59675 3.00206
1.92224 -4.61573 7.09289
4.17056 -2.75797 9.43539
4.63233 -1.88190 6.94160
4.92119 0.88423 2.09477
0.45861 -4.97892 2.72306
-4.99915 0.09217 6.95943
-4.97611 0.48815 6.07487
4.96619 -0.58049 3.80000
-3.41442 -3.65264 1.82747
-4.84837 -1.22201 2.89812
0.09128 4.99917 1.38963
-1.70030 4.70202 7.86152
3.69447 -3.36911 8.85122
-3.46946 3.60039 0.03325
-1.58602 -4.74179 7.90499
-4.95265 -0.68649 9.90704
0.76879 4.94054 4.09559
1.02049 -4.89475 9.00768
-4.27909 -2.58639 4.82269
-4.57248 -2.02296 8.62602
2.48058 -4.34128 5.49785
4.99910 0.09464 8.48648
-4.82994 1.29292 9.25610
4.92130 -0.88364 2.77402
3.13740 3.89316 5.62152
3.80588 3.24273 0.28040
1.87158 4.63651 0.69931
4.73659 -1.60146 2.16213
4.98242 -0.41896 4.62391
2.06619 -4.55312 4.48778
0.89531 4.91919 1.87635
4.70030 1.70505 5.88842
4.25427 2.62701 6.88127
2.57010 -4.28889 4.52097
2.54789 -4.30212 9.56146
-2.39080 4.39136 1.70272
1.59988 -4.73713 6.29914
-0.87275 -4.92324 4.47691
4.75119 1.55762 0.99420
2.40305 -4.38467 0.45464
-4.78096 1.46371 5.96526
0.69082 -4.95205 5.74751
3.59116 3.47902 1.88997
-0.77517 -4.93955 3.07723
4.33265 -2.49562 7.10785
-4.94680 -0.72746 7.96860
4.98580 -0.37650 5.55278
-3.85022 -3.18995 2.49274
2.41741 -4.37677 2.88392
4.16075 -2.77276 3.14485
-4.93571 0.79925 7.53980
3.58460 -3.48578 3.62103
4.91281 -0.92968 3.81766
4.98981 0.31904 5.85090
0.86728 -4.92421 4.64302
4.36289 2.44238 4.10584
-4.37080 -2.42818 8.10482
-4.98608 0.37288 2.77655
3.22726 -3.81900 0.94752
3.45109 3.61801 8.71906
0.81506 4.93312 0.14234
-3.13192 -3.89758 2.57484
4.42710 2.32396 2.63842
1.81581 -4.65863 6.68604
4.99468 -0.23063 7.56248
-4.32254 -2.51310 1.21554
4.97138 0.53418 9.66930
-1.75315 -4.68257 8.05204
-1.81333 4.65959 4.84423
4.99959 -0.06433 2.25182
-4.24464 -2.64255 4.29584
-3.37130 -3.69247 4.96317
-1.97093 4.59515 3.78003
-3.96035 3.05215 3.62855
1.66749 4.71376 6.57109
1.06394 -4.88549 5.50407
1.90323 -4.62360 5.30695
1.58849 -4.74096 5.18474
2.78835 4.15032 4.42549
-4.77569 1.48081 7.72704
3.98519 3.01965 2.54877
-4.93738 0.78887 5.77040
0.47978 -4.97693 3.92422
-1.54212 -4.75625 8.76020
-1.27209 4.83547 8.66075
0.80662 4.93451 0.88191
3.03325 3.97484 5.82873
-0.82271 4.93185 9.17022
0.88108 4.92176 9.83593
1.61870 -4.73073 8.10626
-1.71611 -4.69627 3.38300
2.52080 -4.31805 5.04298
-3.78412 -3.26809 4.72776
-4.86860 -1.13873 1.36051
-4.49191 2.19608 2.83572
2.78913 4.14979 8.54425
4.92209 -0.87921 2.05149
-1.53316 -4.75914 6.85900
-3.38315 3.68162 3.13030
-4.56291 -2.04447 3.08523
-1.01497 4.89590 4.41854
-0.75030 -4.94339 7.21299
4.05073 -2.93114 0.96801
4.73256 -1.61335 9.03850
-2.63142 -4.25155 9.77848
3.77978 -3.27311 3.15735
4.42845 -2.32139 8.14063
-1.65898 -4.71676 2.79505
-0.61409 4.96215 4.38937
2.26843 -4.45581 3.47278
4.94174 -0.76108 9.24101
3.10439 -3.91954 5.71893
-2.76249 4.16757 3.58119
-4.76947 -1.50073 1.14272
4.68060 1.75840 5.31700
-2.64308 -4.24430 9.21320
1.72797 -4.69192 4.23181
-3.03429 -3.97405 3.81197
-4.98789 -0.34782 3.98183
-2.58436 -4.28032 6.77780
3.27606 -3.77723 8.04241
-4.95821 0.64512 3.92640
4.88225 1.07873 0.09917
-1.96879 -4.59607 6.06083
4.62835 -1.89166 1.27180
1.28918 -4.83094 4.28286
4.11755 2.83651 2.68306
-2.35405 -4.41118 4.11296
0.02991 -4.99991 4.87904
1.57038 4.74699 4.05294
4.97104 -0.53738 9.71435
0.44914 -4.97979 3.53035
-4.97795 -0.46909 9.21457
4.59975 1.96018 9.47403
-2.59881 -4.27156 1.14838
-2.30094 -4.43911 2.10142
-0.82055 4.93221 4.67546
4.96725 -0.57130 0.16276
-4.55453 -2.06308 2.07294
-3.10639 3.91795 6.12653
-0.56291 4.96821 4.10379
-0.32995 4.98910 3.86665
-3.48545 3.58491 4.96668
-1.07590 4.88287 6.14565
-1.16175 4.86316 9.39932
-4.90343 0.97793 5.64781
4.32692 2.50554 5.24927
2.24778 4.46626 9.56429
-4.81638 1.34258 4.17663
-4.53946 -2.09602 1.91639
-4.99895 0.10255 0.76295
-3.83935 3.20303 5.70709
4.70747 1.68516 3.05741
2.66695 -4.22935 2.78181
-4.78485 -1.45093 8.30684
-3.72401 -3.33643 7.85360
-2.91463 -4.06263 7.91472
-1.06022 4.88630 9.00665
-0.71901 4.94803 6.75174
4.28672 2.57372 7.46376
1.81459 4.65911 9.41788
-4.84450 1.23726 4.08228
-4.99965 -0.05880 6.94247
4.48763 -2.20482 7.35698
4.55522 2.06154 6.54995
-3.25724 -3.79347 0.84320
4.88058 -1.08625 4.06338
-4.93543 0.80095 2.74325
-1.37323 -4.80773 6.29351
4.45661 -2.26685 9.64164
-4.86028 1.17373 0.20132
4.70296 1.69768 7.19062
2.32838 -4.42478 2.72335
-2.93423 4.04849 6.85161
3.08640 -3.93372 4.94969
1.91416 4.61909 1.90206
-4.04866 -2.93400 4.10866
-3.41848 -3.64884 8.44965
-4.83228 -1.28416 7.48462
4.94872 -0.71428 3.77177
-3.88250 3.15059 6.21572
1.02681 4.89343 9.88566
-1.42746 -4.79191 2.64011
4.38898 -2.39517 2.39890
4.41660 -2.34384 0.42813
-2.49152 -4.33501 0.26381
4.72780 1.62723 1.11561
-4.00620 2.99171 0.68488
-3.47409 -3.59593 6.34621
3.36981 -3.69383 4.92517
4.79800 -1.40686 2.17063
0.12667 4.99840 4.83927
-2.20356 4.48824 6.75763
3.75462 3.30195 2.09952
4.98844 0.33980 9.34776
-4.80205 -1.39296 2.67286
4.99884 0.10757 7.57458
-0.57306 -4.96705 0.16291
0.48141 4.97677 9.32695
-4.77903 -1.46999 0.95139
-0.12007 4.99856 4.77745
4.27286 -2.59667 0.74848
2.10414 4.53570 0.61438
-4.82458 -1.31281 6.18739
2.86126 -4.10039 0.23193
2.72309 -4.19342 5.41987
1.70035 -4.70200 4.46156
-4.87933 1.09186 0.82807
1.78934 4.66886 4.13211
-0.11095 4.99877 8.49448
-2.60289 4.26907 6.13400
-3.40503 -3.66139 7.87799
-0.80835 4.93422 4.62898
-1.05546 4.88733 6.28043
2.87004 -4.09425 1.52623
0.36222 -4.98686 2.28288
2.84622 4.11084 4.15661
4.74846 -1.56592 8.55167
2.90679 -4.06824 9.83698
-4.41007 -2.35611 6.65475
-4.84217 -1.24635 0.32989
3.75488 3.30165 5.27745
4.90945 0.94726 9.00966
-4.96324 0.60516 2.94053
4.79260 1.42513 1.24919
0.97717 4.90358 8.71950
-4.17367 2.75327 8.82510
3.96184 3.05022 2.47890
3.28193 3.77213 4.25729
-3.07591 -3.94192 3.17141
-3.65891 3.40769 8.54314
-3.12546 3.90275 8.67436
-0.83001 4.93063 5.44238
3.66544 -3.40067 4.63692
-1.36638 -4.80968 4.63640
-4.64143 -1.85934 5.25107
-3.53231 -3.53876 6.75115
-4.96465 -0.59351 4.46063
0.95385 -4.90817 6.61945
-3.97289 3.03581 7.85968
-4.22631 2.67176 3.53395
-2.28867 4.44545 6.50556
4.87489 -1.11149 7.07413
0.39899 -4.98406 3.17093
0.89432 -4.91937 9.22956
-1.04277 -4.89005 1.47382
2.09866 -4.53824 1.34546
3.35328 -3.70884 6.21784
-4.50064 2.17813 4.56582
0.04886 4.99976 7.70913
4.99970 -0.05515 0.21711
4.74270 1.58330 5.63408
-1.94832 4.60479 1.58969
-1.10539 4.87628 5.36397
-4.26026 -2.61728 6.46974
4.54062 -2.09351 0.51986
4.67413 1.77552 2.44896
-3.32650 -3.73288 0.53159
-3.63106 -3.43736 9.51005
1.04681 -4.88919 9.01212
-2.37065 -4.40227 9.82914
-3.88188 -3.15135 8.18169
4.99227 -0.27786 1.20907
4.61559 -1.92259 3.65379
-4.88549 -1.06395 4.98607
-0.41502 -4.98275 9.47685
-0.41942 -4.98238 8.71196
-3.62338 3.44545 9.42957
3.39224 3.67324 5.37772
-2.70433 -4.20555 6.95459
-4.44478 -2.28996 5.87867
2.76659 -4.16485 8.45796
-1.83481 -4.65118 4.13498
4.07033 -2.90386 3.39082
-4.57027 -2.02797 6.18001
-4.97894 0.45841 3.32577
-4.98818 -0.34354 7.54857
-4.32504 -2.50879 5.17396
4.92835 0.84343 2.01616
4.97409 0.50833 0.02968
-2.40062 4.38600 9.55739
-4.40165 -2.37181 7.71096
-1.12921 -4.87082 4.98781
1.23861 4.84416 3.00824
3.58642 -3.48391 1.83351
-4.54462 2.08480 9.23826
2.29303 -4.44320 7.83778
-4.07468 2.89775 0.48260
-4.88073 1.08558 8.99722
-4.98810 -0.34472 8.22506
-1.11157 4.87488 1.82766
4.27806 -2.58809 5.88463
-4.40507 -2.36546 9.98166
-3.26122 -3.79004 3.80555
0.98216 4.90259 5.68799
-0.43192 -4.98131 2.94641
4.47286 2.23462 7.93484
-3.27668 3.77668 9.48006
-2.89607 4.07588 7.09459
-4.30010 -2.55130 0.74526
4.59034 -1.98211 4.12835
-4.36060 2.44646 0.76755
2.24616 -4.46707 7.65451
-4.11128 -2.84560 5.80698
-0.44634 4.98004 4.28962
-4.68508 -1.74642 2.70282
1.67983 -4.70937 8.82705
3.90617 3.12120 2.80924
-2.99845 -4.00116 8.29272
-3.46223 -3.60735 3.98638
-4.71020 1.67751 1.48360
-2.90399 4.07024 8.19922
0.84149 -4.92868 6.41986
4.91239 -0.93189 4.94882
3.04293 3.96744 3.58890
4.63591 -1.87307 6.30980
2.54905 4.30143 8.90165
-0.58935 4.96514 7.43884
0.52095 -4.97279 3.60852
2.76817 -4.16380 7.25707
4.92466 -0.86472 0.88143
-4.67593 1.77080 8.27114
2.51885 4.31919 3.62352
-4.32592 -2.50727 6.82170
-4.58139 -2.00272 1.36514
-4.28652 -2.57405 5.19086
-1.61693 -4.73134 8.28596
-0.77864 4.93900 8.48724
-1.70302 4.70103 5.41849
-3.65354 -3.41345 8.38992
-4.80375 -1.38707 9.74427
-4.94532 -0.73742 0.23329
4.60770 1.94141 8.84228
1.72580 -4.69272 1.25233
-4.93969 -0.77423 0.85595
1.25614 -4.83964 2.13999
-4.99987 0.03668 9.25878
-1.33650 4.81807 5.79955
0.98307 -4.90240 4.21947
-3.01445 -3.98912 5.70633
1.14334 4.86752 0.12537
0.79767 -4.93596 3.26084
-4.98981 0.31910 2.62855
4.75262 -1.55324 6.00518
-4.24761 -2.63777 8.21068
-4.84145 -1.24916 7.17574
-4.77273 1.49033 3.54652
4.92620 0.85587 0.26364
1.57229 4.74636 8.08541
4.63517 -1.87489 4.01085
-4.71063 -1.67630 2.01695
-4.86476 -1.15506 0.79888
-3.76231 3.29318 5.09602
4.08601 -2.88176 4.43793
2.87560 4.09034 3.75074
-2.47384 4.34512 7.27325
-2.34279 4.41717 1.57398
-1.29809 -4.82856 9.98998
-2.42320 4.37357 1.96180
-3.17054 -3.86622 6.39967
-0.27291 4.99255 0.14176
-3.40189 3.66431 4.33833
3.34804 3.71357 0.83427
4.78254 1.45853 7.00432
1.69111 4.70533 5.72024
4.79158 1.42857 2.46226
4.37360 -2.42314 8.32105
-0.66289 -4.95586 6.25841
-4.35941 -2.44859 0.73627
-2.31919 4.42960 5.78634
-4.62542 -1.89882 4.27068
-0.94337 -4.91020 0.28787
-3.50870 -3.56217 3.25158
-4.26373 2.61164 7.33494
-4.93208 0.82133 8.26701
-4.93020 -0.83253 1.00575
1.85643 4.64259 2.53994
-2.92675 4.05390 9.17351
2.58079 4.28247 9.37634
-0.97223 -4.90457 4.74987
-4.68807 1.73838 6.79852
-4.90412 -0.97449 9.34361
-4.97949 0.45244 4.04312
-4.39424 -2.38550 9.70169
-3.10044 3.92266 0.46760
4.92358 0.87083 5.00320
-4.63533 1.87450 5.12561
-2.40192 4.38529 8.39088
4.64900 1.84034 8.37073
4.50519 2.16871 0.68098
3.59639 -3.47361 0.94759
-4.06908 -2.90562 5.01500
3.47827 -3.59188 3.12982
3.20819 -3.83504 8.69400
4.71129 -1.67444 0.89797
4.92740 -0.84896 7.76994
-3.33548 -3.72486 0.48553
4.38629 2.40010 6.26063
-2.35844 -4.40883 2.85074
1.68277 4.70832 2.73353
